ncols         205
nrows         60
xllcorner     418822.332194
yllcorner     5287367.9304
cellsize      10
NODATA_value  -9999
-9999 -9999 -9999 -9999 -9999 -9999 -9999 -9999 -9999 -9999 -9999 -9999 -9999 -9999 -9999 -9999 -9999 -9999 -9999 -9999 -9999 -9999 -9999 -9999 -9999 -9999 -9999 -9999 -9999 -9999 -9999 -9999 -9999 721.4365 716.6595 710.6801 704.8051 699.4642 692.5109 685.6125 678.6326 669.654 661.4366 654.02 646.9075 640.8717 633.0574 623.3038 625.9144 631.3696 635.6254 637.8039 639.0414 637.4069 637.2804 640.5037 641.9194 636.1367 628.2462 620.6177 618.7204 618.7303 624.03 635.2787 643.2446 649.0777 654.9489 659.6741 664.7695 672.3575 680.3914 686.9163 691.4579 693.0885 696.8483 700.0662 703.6232 707.8096 711.2249 710.4233 706.9966 703.4998 699.1418 694.6003 689.7053 683.4667 677.3403 670.8275 662.9758 652.986 642.1991 634.4671 628.7003 624.8324 621.6396 617.2772 613.9625 609.9589 604.6333 596.1012 588.0643 581.4235 576.3768 572.1813 569.8754 566.1042 563.0334 560.816 555.3319 546.4318 539.2682 533.8024 531.1018 525.6017 521.7887 518.0724 516.0759 515.2156 512.1966 507.7153 505.7417 503.8664 503.029 500.2881 500.1829 500.0892 494.9785 498.5217 501.8768 504.8022 499.3805 498.7084 507.6154 509.0251 507.2527 504.556 514.808 525.364 532.926 539.2766 544.4848 549.3083 555.4164 561.168 567.0972 570.6984 573.5734 576.2396 579.3425 586.0511 589.8612 588.0948 589.9709 595.5952 602.6559 609.3653 615.5367 620.9736 626.617 630.5237 632.153 635.159 638.9949 641.5453 645.161 648.9367 652.7018 654.856 656.9781 658.9616 -9999 -9999 -9999 -9999 -9999 -9999 -9999 -9999 -9999 -9999 -9999 -9999 -9999 -9999 -9999 -9999 -9999 -9999 -9999 -9999 -9999 -9999 -9999 -9999 -9999 -9999 -9999 -9999 -9999 -9999 -9999 -9999 -9999 -9999 -9999
-9999 -9999 -9999 -9999 -9999 -9999 -9999 -9999 -9999 -9999 -9999 -9999 -9999 -9999 -9999 -9999 -9999 -9999 -9999 -9999 -9999 -9999 -9999 -9999 -9999 -9999 -9999 -9999 -9999 -9999 -9999 -9999 -9999 718.009 714.5967 708.0077 702.4147 697.057 690.6814 683.9385 677.2344 669.2189 661.8184 653.6505 645.9565 639.6 632.4935 622.4511 618.2883 622.3765 627.1938 630.0437 631.3802 629.969 629.8799 633.8735 636.2479 632.5294 627.6701 620.8068 613.173 615.0262 624.2129 632.3732 638.7175 643.6508 649.4991 655.8885 662.495 670.4861 677.8516 681.7203 684.0908 685.6248 689.2557 692.9491 696.9504 701.3318 705.3689 708.2318 707.3417 704.2313 699.9595 695.1901 690.119 684.0855 677.1086 670.5287 662.825 654.491 645.8811 641.2299 635.6177 631.7773 627.4735 623.5995 619.4481 615.1367 608.6277 599.822 592.6097 586.663 583.9503 581.4213 577.9207 574.7758 571.9747 564.815 555.8135 547.8262 540.7891 536.7726 534.3297 531.4668 528.2573 526.2258 521.7742 522.793 518.4054 513.2535 510.6048 508.0894 504.5682 500.253 495.3244 496.8073 493.3196 493.5665 498.8167 501.8463 495.7869 495.8723 502.9703 506.0938 501.5423 504.425 512.5281 519.0127 526.3477 533.9829 539.7719 546.1696 553.1381 560.0693 567.7914 574.5092 580.1129 583.7933 587.6208 591.3288 592.9427 594.1139 595.0504 598.58 606.6373 612.6251 617.774 622.1006 627.888 632.364 634.6865 638.0013 641.633 644.793 649.0145 650.9103 652.938 655.8489 -9999 -9999 -9999 -9999 -9999 -9999 -9999 -9999 -9999 -9999 -9999 -9999 -9999 -9999 -9999 -9999 -9999 -9999 -9999 -9999 -9999 -9999 -9999 -9999 -9999 -9999 -9999 -9999 -9999 -9999 -9999 -9999 -9999 -9999 -9999 -9999 -9999
-9999 -9999 -9999 -9999 -9999 -9999 -9999 -9999 -9999 -9999 -9999 -9999 -9999 -9999 -9999 -9999 -9999 -9999 -9999 -9999 -9999 -9999 -9999 -9999 -9999 -9999 -9999 -9999 -9999 -9999 -9999 -9999 -9999 -9999 710.504 704.8851 699.8604 694.4144 687.9512 681.5778 675.1289 668.3319 661.0175 653.6055 646.7673 639.3455 632.1933 622.9426 612.8743 614.7275 619.8474 621.8507 624.0818 621.8857 623.0234 627.8743 628.9182 625.9693 622.0923 616.8032 609.7136 612.6016 622.7574 628.8192 634.839 640.9159 647.7701 654.5923 662.021 668.4028 672.6593 674.7579 676.2575 678.1762 681.4025 685.6682 690.2539 694.1752 699.1205 703.646 705.8109 703.9204 700.6011 696.6242 690.9572 685.0868 678.7134 671.6497 665.1985 659.1345 652.9159 647.2261 642.6776 638.3922 634.3665 629.6681 624.3995 618.6168 612.3036 605.0875 599.5309 595.4542 591.3608 589.6234 584.9897 579.5521 574.7789 567.0271 558.2679 548.9113 542.7977 538.8323 537.5598 536.0891 533.6553 530.4449 529.6213 526.9329 521.7795 516.857 516.7678 513.9119 511.0155 504.902 498.5537 492.4814 492.5949 490.7158 496.2883 499.7912 493.1862 492.2337 494.6538 498.4966 499.7356 505.6487 508.9703 513.3754 520.51 528.6909 535.2266 543.2809 551.0144 558.9712 565.7911 572.6422 580.3781 585.5505 592.7598 596.8396 598.0709 599.1141 599.627 601.5251 608.4593 614.7145 619.9998 624.5078 629.6368 634.3429 636.5557 640.0008 643.1455 648.0056 650.5057 650.8448 652.3467 -9999 -9999 -9999 -9999 -9999 -9999 -9999 -9999 -9999 -9999 -9999 -9999 -9999 -9999 -9999 -9999 -9999 -9999 -9999 -9999 -9999 -9999 -9999 -9999 -9999 -9999 -9999 -9999 -9999 -9999 -9999 -9999 -9999 -9999 -9999 -9999 -9999 -9999
-9999 -9999 -9999 -9999 -9999 -9999 -9999 -9999 -9999 -9999 -9999 -9999 -9999 -9999 -9999 -9999 -9999 -9999 -9999 -9999 -9999 -9999 -9999 -9999 -9999 -9999 -9999 -9999 -9999 -9999 -9999 -9999 -9999 -9999 708.1677 703.9996 698.533 692.3425 686.7281 679.8991 673.7657 667.134 659.8409 653.0409 645.2898 637.3124 630.3691 622.2439 612.3455 606.4347 611.1628 613.1045 615.8621 615.0475 616.2347 620.4615 620.8304 617.9462 613.6782 609.1855 603.7798 610.8123 619.6393 627.0696 633.113 640.2926 647.3427 652.9761 657.9138 661.4084 665.0827 667.0327 668.9209 671.2572 673.7413 679.0175 684.004 688.1577 693.7256 698.5002 702.1959 702.8893 701.0515 697.3832 693.3095 687.8414 681.6517 675.3301 669.3599 663.9946 658.2148 653.3015 647.3297 642.9725 639.3203 634.0648 628.0884 621.2891 615.507 610.5159 605.8921 601.7255 597.6595 593.995 587.9181 581.5934 573.5696 566.0182 558.4728 550.0863 544.7157 543.3845 541.8971 540.5316 539.006 537.5537 535.9938 529.177 522.6886 520.5054 520.7074 518.9235 516.111 509.2675 501.9134 494.5715 487.3516 488.2629 494.2462 496.6564 493.0247 487.2647 493.4583 502.5482 507.6277 512.6736 516.1514 518.5837 518.8123 522.9751 529.9017 538.5969 545.3954 552.8851 559.561 566.4167 573.2907 580.9236 588.8744 600.0667 601.1868 602.2383 604.6036 606.3988 610.1486 616.2119 622.4031 626.2436 630.9725 635.3876 639.9596 642.8719 646.2568 650.1628 650.415 650.5621 -9999 -9999 -9999 -9999 -9999 -9999 -9999 -9999 -9999 -9999 -9999 -9999 -9999 -9999 -9999 -9999 -9999 -9999 -9999 -9999 -9999 -9999 -9999 -9999 -9999 -9999 -9999 -9999 -9999 -9999 -9999 -9999 -9999 -9999 -9999 -9999 -9999 -9999 -9999
-9999 -9999 -9999 -9999 -9999 -9999 -9999 -9999 -9999 -9999 -9999 -9999 -9999 -9999 -9999 -9999 -9999 -9999 -9999 -9999 -9999 -9999 -9999 -9999 -9999 -9999 -9999 -9999 -9999 -9999 -9999 -9999 -9999 -9999 -9999 702.945 697.8488 691.7848 685.7794 679.4343 673.0616 666.3668 659.2778 652.3947 644.9416 638.4021 631.1685 624.2335 616.6035 606.7745 600.5398 602.0037 605.9111 607.6744 610.3224 612.1619 611.6102 609.5345 605.2231 602.0997 597.0697 607.8131 617.4829 626.1697 632.3815 636.8743 642.2494 647.6528 651.2501 654.2997 657.1716 658.9006 661.4465 663.894 667.4069 672.6692 677.418 682.2026 687.2341 692.4195 696.6707 700.2346 701.4598 698.9423 695.1002 689.8965 684.7583 679.3885 673.6949 668.8097 663.0764 658.1798 651.9741 646.7147 642.8986 638.0866 630.6686 623.3579 617.3373 612.1938 607.9846 604.4131 600.4072 596.4502 591.1665 582.2968 574.0885 566.3298 558.8653 552.5392 549.5811 549.1963 548.4587 546.9408 546.0645 543.2778 535.1503 528.6314 526.1557 526.8613 526.8834 526.2075 521.1059 513.5065 507.9614 499.8804 490.3158 484.0796 488.9701 493.5627 489.364 485.6981 496.4331 508.7448 515.5364 519.9888 524.1051 525.5697 527.2674 528.3182 529.3461 535.4825 541.3332 547.9519 553.5504 562.0093 570.3486 579.8828 590.2025 596.899 601.8207 605.7336 608.8975 610.7895 612.9048 617.5439 623.7321 627.7881 631.6165 636.6945 641.3602 646.4199 650.0797 649.5966 -9999 -9999 -9999 -9999 -9999 -9999 -9999 -9999 -9999 -9999 -9999 -9999 -9999 -9999 -9999 -9999 -9999 -9999 -9999 -9999 -9999 -9999 -9999 -9999 -9999 -9999 -9999 -9999 -9999 -9999 -9999 -9999 -9999 -9999 -9999 -9999 -9999 -9999 -9999 -9999 -9999
-9999 -9999 -9999 -9999 -9999 -9999 -9999 -9999 -9999 -9999 -9999 -9999 -9999 -9999 -9999 -9999 -9999 -9999 -9999 -9999 -9999 -9999 -9999 -9999 -9999 -9999 -9999 -9999 -9999 -9999 -9999 -9999 -9999 -9999 -9999 702.5244 697.6711 692.0149 686.1299 679.88 673.3284 667.0426 660.811 654.734 648.798 642.4605 636.6815 629.697 620.265 610.8581 601.2432 593.8083 593.9348 599.0654 603.4865 604.1342 604.0481 602.9882 598.1921 593.374 592.4749 603.1215 613.2371 620.6612 627.712 631.9464 636.1862 640.8207 643.7871 646.1753 648.6624 650.6246 652.797 654.7576 660.731 665.7373 670.4976 676.4053 681.9207 687.1564 692.514 697.1462 700.4678 698.7183 694.4075 689.7563 685.403 680.482 676.4259 671.7167 666.9535 660.2822 654.2555 648.7432 644.6428 639.5245 632.5286 625.4405 618.8728 613.1669 609.3204 604.9792 602.4753 599.4029 594.9727 586.3194 577.8582 569.5112 561.7388 556.7294 554.9311 554.5287 555.7906 554.4861 550.5328 542.5181 534.4523 531.934 532.9725 533.6461 533.6919 533.2271 526.8964 519.8478 511.286 501.143 492.3404 484.459 483.9675 491.0557 486.3473 485.0778 498.0302 508.606 519.3884 525.1125 529.1145 532.0825 531.8738 533.4374 534.4424 536.0007 539.592 546.0339 553.8177 561.36 571.8657 582.3851 591.1177 594.6846 598.8992 604.9091 610.474 613.9731 616.9297 620.6544 625.3726 628.5205 632.588 637.3445 642.558 647.0211 647.7061 -9999 -9999 -9999 -9999 -9999 -9999 -9999 -9999 -9999 -9999 -9999 -9999 -9999 -9999 -9999 -9999 -9999 -9999 -9999 -9999 -9999 -9999 -9999 -9999 -9999 -9999 -9999 -9999 -9999 -9999 -9999 -9999 -9999 -9999 -9999 -9999 -9999 -9999 -9999 -9999 -9999 -9999
-9999 -9999 -9999 -9999 -9999 -9999 -9999 -9999 -9999 -9999 -9999 -9999 -9999 -9999 -9999 -9999 -9999 -9999 -9999 -9999 -9999 -9999 -9999 -9999 -9999 -9999 -9999 -9999 -9999 -9999 -9999 -9999 -9999 -9999 -9999 -9999 698.5178 693.4993 688.2186 681.9412 675.4703 669.9466 664.2346 658.9822 653.082 647.5507 641.4706 633.1298 624.3097 615.7501 606.4514 597.0864 588.3882 590.8129 594.6587 595.34 595.8276 596.4921 591.2084 586.2005 589.2013 597.6541 605.6185 613.2126 621.1877 626.4189 630.1367 632.7313 635.5629 638.748 640.4587 642.2631 644.6696 647.8875 653.5088 659.3145 665.1011 670.3809 676.6804 682.6941 687.6083 692.4309 696.5206 695.3464 691.9105 686.6733 681.0002 676.653 672.6441 667.7094 664.4846 659.9659 654.7546 647.7198 643.8809 639.5177 634.7963 627.2136 621.0171 615.2975 611.5515 607.983 605.95 602.0958 597.5406 590.8548 582.9224 573.6405 566.4982 562.4017 562.1495 562.3042 564.3052 558.8851 552.7122 545.4694 540.8554 539.6393 539.9791 539.557 538.2997 534.6108 528.8577 520.3599 510.5872 500.7072 493.5977 485.1837 480.2833 486.2993 482.9251 484.3043 496.0437 506.7498 516.7389 521.8938 525.908 530.8245 535.7028 537.9964 538.7447 542.7802 546.0675 548.6156 555.2572 563.9699 573.0834 582.1642 586.4474 589.0458 594.1931 603.0065 609.8484 615.2891 619.1669 622.6264 625.8253 629.4272 634.6119 639.6578 642.6243 644.2855 -9999 -9999 -9999 -9999 -9999 -9999 -9999 -9999 -9999 -9999 -9999 -9999 -9999 -9999 -9999 -9999 -9999 -9999 -9999 -9999 -9999 -9999 -9999 -9999 -9999 -9999 -9999 -9999 -9999 -9999 -9999 -9999 -9999 -9999 -9999 -9999 -9999 -9999 -9999 -9999 -9999 -9999 -9999
-9999 -9999 -9999 -9999 -9999 -9999 -9999 -9999 -9999 -9999 -9999 -9999 -9999 -9999 -9999 -9999 -9999 -9999 -9999 -9999 -9999 -9999 -9999 -9999 -9999 -9999 -9999 -9999 -9999 -9999 -9999 -9999 -9999 -9999 -9999 -9999 699.084 694.8419 689.1094 683.5422 677.8569 672.4696 667.3932 661.9456 655.9547 650.4493 644.9705 636.1161 627.9444 620.0333 610.5327 601.4116 591.802 582.9056 582.85 583.5145 587.3892 589.269 585.6709 577.8757 584.4357 589.8299 598.4771 607.1654 615.1367 620.2756 622.061 624.9657 627.2525 629.1506 631.2317 634.0686 635.6543 640.8298 647.4851 653.2763 658.9304 664.9814 671.034 676.7109 682.4038 688.3954 691.2811 689.8005 687.0101 682.4015 676.3901 671.1978 666.1549 661.6987 658.0358 654.8049 651.0376 646.717 643.8 639.8194 635.3762 629.7419 622.5982 617.9431 614.3221 611.4067 608.0036 603.0582 597.6633 591.3235 585.0552 578.2993 570.8553 569.3824 570.0271 570.5978 567.2153 563.496 557.7253 552.2275 548.7216 546.668 544.7028 541.8033 538.766 535.9664 530.4077 522.9606 512.733 503.698 493.379 484.9856 478.4476 481.088 479.5114 483.1613 494.0838 503.6462 509.5464 514.5451 519.2253 525.7411 533.0015 540.4066 543.7761 547.881 553.6646 556.7477 561.7906 568.8459 573.5048 576.085 578.931 584.736 593.6765 601.5259 607.6295 611.9668 616.378 621.3615 625.0443 629.2802 635.1598 639.9634 641.7107 -9999 -9999 -9999 -9999 -9999 -9999 -9999 -9999 -9999 -9999 -9999 -9999 -9999 -9999 -9999 -9999 -9999 -9999 -9999 -9999 -9999 -9999 -9999 -9999 -9999 -9999 -9999 -9999 -9999 -9999 -9999 -9999 -9999 -9999 -9999 -9999 -9999 -9999 -9999 -9999 -9999 -9999 -9999 -9999
-9999 -9999 -9999 -9999 -9999 -9999 -9999 -9999 -9999 -9999 -9999 -9999 -9999 -9999 -9999 -9999 -9999 -9999 -9999 -9999 -9999 -9999 -9999 -9999 -9999 -9999 -9999 -9999 -9999 -9999 -9999 -9999 -9999 -9999 -9999 -9999 -9999 695.3578 691.0891 684.8741 679.909 674.2473 668.7312 663.2708 656.8074 650.4676 643.6172 637.1585 629.191 621.4545 613.9564 605.1942 595.6211 586.3483 578.5721 573.165 574.9961 578.7307 581.1355 573.709 574.4878 583.215 592.263 601.4657 608.7885 614.0699 615.6312 617.2642 619.6218 620.2695 622.6774 625.4001 627.8309 634.8512 640.967 646.6797 652.2804 658.9403 664.9601 671.684 677.5582 683.4325 685.7825 683.8478 681.6807 676.9311 671.3632 665.8707 660.6228 655 651.3104 647.9812 643.7757 641.2306 639.6442 637.6744 636.0406 631.1235 625.3711 620.063 616.429 613.6097 608.0204 603.8096 599.6871 595.3033 589.6127 584.4937 579.8782 577.833 576.1025 572.4708 568.6417 564.4218 559.5762 554.973 550.7347 546.8379 543.5788 541.3477 539.5181 537.2466 531.985 523.6235 513.1034 503.7963 494.3079 484.0879 479.9716 476.3003 476.5381 481.7631 490.0993 496.0986 501.636 506.7468 513.2032 521.1401 529.3576 536.6842 544.494 550.8156 557.2095 562.7157 562.817 563.1866 565.2798 571.4299 578.55 586.6127 593.6262 599.5668 603.3905 607.0999 612.2411 618.5154 623.4768 628.6759 636.2418 640.6477 641.2398 -9999 -9999 -9999 -9999 -9999 -9999 -9999 -9999 -9999 -9999 -9999 -9999 -9999 -9999 -9999 -9999 -9999 -9999 -9999 -9999 -9999 -9999 -9999 -9999 -9999 -9999 -9999 -9999 -9999 -9999 -9999 -9999 -9999 -9999 -9999 -9999 -9999 -9999 -9999 -9999 -9999 -9999 -9999 -9999
-9999 -9999 -9999 -9999 -9999 -9999 -9999 -9999 -9999 -9999 -9999 -9999 -9999 -9999 -9999 -9999 -9999 -9999 -9999 -9999 -9999 -9999 -9999 -9999 -9999 -9999 -9999 -9999 -9999 -9999 -9999 -9999 -9999 -9999 -9999 -9999 -9999 694.9288 690.9061 685.541 680.3403 674.229 668.735 663.1617 657.2037 651.1061 645.2517 638.86 631.8215 625.3932 618.9871 610.1075 601.0573 592.0527 584.6301 577.4261 569.4563 565.8635 569.8663 565.7126 563.7718 576.4248 587.0303 595.8832 601.6775 606.6678 607.887 609.6176 611.1072 611.6437 613.3399 616.996 622.4329 628.9967 635.0242 639.1382 645.7089 653.9218 660.0749 666.4109 673.5562 678.6189 679.3794 677.479 675.9276 673.4091 667.3749 660.9688 655.4114 649.6965 644.6635 639.6099 635.7175 633.408 631.2675 630.8469 631.0031 628.9503 626.2253 624.0094 618.6914 613.7994 609.9376 603.8972 600.5955 596.4769 591.7791 588.1543 584.4609 579.9582 575.2803 571.4086 566.9456 561.8782 557.1385 552.3357 547.8193 543.5056 539.0868 537.034 537.5483 535.1335 529.4117 521.653 512.8123 503.519 494.3498 482.3125 476.3285 473.6699 474.6917 480.2993 487.1969 494.1349 500.1044 504.9408 508.3394 517.1115 526.1915 534.287 542.9623 550.9123 556.3453 556.8475 554.5745 554.0579 561.5834 571.7149 578.7169 586.3461 591.4065 594.5497 599.6445 604.0945 609.3889 615.853 621.9269 628.3551 635.8661 640.1805 640.8146 -9999 -9999 -9999 -9999 -9999 -9999 -9999 -9999 -9999 -9999 -9999 -9999 -9999 -9999 -9999 -9999 -9999 -9999 -9999 -9999 -9999 -9999 -9999 -9999 -9999 -9999 -9999 -9999 -9999 -9999 -9999 -9999 -9999 -9999 -9999 -9999 -9999 -9999 -9999 -9999 -9999 -9999 -9999 -9999
-9999 -9999 -9999 -9999 -9999 -9999 -9999 -9999 -9999 -9999 -9999 -9999 -9999 -9999 -9999 -9999 -9999 -9999 -9999 -9999 -9999 -9999 -9999 -9999 -9999 -9999 -9999 -9999 -9999 -9999 -9999 -9999 -9999 -9999 -9999 -9999 -9999 -9999 689.7914 685.3116 680.0713 674.2991 669.1526 664.2834 659.0797 653.7907 648.9276 642.4087 636.949 631.5296 624.536 616.2744 606.3897 598.3605 590.1378 582.2053 574.9061 565.0359 558.1117 557.2186 558.5087 568.3232 576.8439 586.519 594.0331 598.8489 600.5955 601.538 602.614 603.4994 605.3435 611.5919 616.6454 622.3087 628.0594 632.8571 641.6299 648.8834 655.3025 661.5958 668.5811 673.6576 672.798 669.577 668.575 667.7345 663.6227 657.2524 651.1161 645.0208 638.6528 632.5164 627.5733 624.667 622.4062 622.3384 623.6345 624.3218 623.6696 623.3373 619.0686 614.4402 610.1852 605.9142 601.8947 597.3059 593.1888 587.3748 581.7817 577.3484 571.9473 567.8607 562.3849 557.214 552.149 547.3354 542.6842 538.0497 533.4106 530.1904 531.2382 530.7795 523.7668 516.8364 509.1501 500.7567 491.3795 480.316 473.5647 471.4723 474.0105 481.5992 491.9663 500.9777 507.0135 510.6193 511.7264 514.0002 522.748 530.9258 539.099 547.0208 550.3705 548.7291 546.8592 552.3037 561.8896 572.7772 579.4979 583.5991 587.2391 591.0087 596.694 602.2703 607.9854 614.6909 621.571 628.3414 635.8113 639.6602 640.8382 -9999 -9999 -9999 -9999 -9999 -9999 -9999 -9999 -9999 -9999 -9999 -9999 -9999 -9999 -9999 -9999 -9999 -9999 -9999 -9999 -9999 -9999 -9999 -9999 -9999 -9999 -9999 -9999 -9999 -9999 -9999 -9999 -9999 -9999 -9999 -9999 -9999 -9999 -9999 -9999 -9999 -9999 -9999 -9999
-9999 -9999 -9999 -9999 -9999 -9999 -9999 -9999 -9999 -9999 -9999 -9999 -9999 -9999 -9999 -9999 -9999 -9999 -9999 -9999 -9999 -9999 -9999 -9999 -9999 -9999 -9999 -9999 -9999 -9999 -9999 -9999 -9999 -9999 -9999 -9999 -9999 -9999 688.7429 684.6227 680.2169 675.049 670.3192 665.908 661.3885 656.6436 651.2433 645.92 640.1074 634.1052 627.7006 618.9559 610.727 603.1123 594.6176 586.5693 579.4789 570.6268 563.1988 555.482 553.0977 558.0217 567.1505 574.6173 585.1635 590.6864 592.2683 593.3077 594.6077 595.5121 599.2604 605.4357 610.5091 615.5649 622.4832 628.9152 634.4771 642.6891 650.9476 658.1829 664.019 668.2092 665.8173 661.8869 659.4097 658.7261 658.0334 653.495 648.3354 642.5093 634.8984 627.2395 618.882 615.6495 613.0519 614.4608 615.8789 618.0582 620.2634 621.1694 618.3683 614.7466 610.8779 607.4047 603.2891 597.6481 592.0298 585.2092 578.7458 573.488 567.4134 561.9537 557.022 551.3779 546.1719 541.5214 536.621 532.4559 528.0211 523.3759 523.5748 523.7455 519.5019 512.3177 504.2855 496.2571 487.7676 476.996 469.7738 469.7654 474.2993 484.3508 495.5316 506.9022 513.207 517.4209 517.3797 515.6629 517.4232 525.0477 533.5997 539.5128 541.1206 540.2831 544.8087 555.7968 564.4973 572.5958 576.6923 579.3151 583.1045 589.292 595.8604 602.505 608.6399 614.822 621.837 627.4849 634.243 638.1719 639.9817 -9999 -9999 -9999 -9999 -9999 -9999 -9999 -9999 -9999 -9999 -9999 -9999 -9999 -9999 -9999 -9999 -9999 -9999 -9999 -9999 -9999 -9999 -9999 -9999 -9999 -9999 -9999 -9999 -9999 -9999 -9999 -9999 -9999 -9999 -9999 -9999 -9999 -9999 -9999 -9999 -9999 -9999 -9999 -9999
-9999 -9999 -9999 -9999 -9999 -9999 -9999 -9999 -9999 -9999 -9999 -9999 -9999 -9999 -9999 -9999 -9999 -9999 -9999 -9999 -9999 -9999 -9999 -9999 -9999 -9999 -9999 -9999 -9999 -9999 -9999 -9999 -9999 -9999 -9999 -9999 -9999 -9999 687.7111 685.5859 680.8851 675.2974 670.3885 665.2915 659.9766 655.813 650.4752 645.4475 639.9283 634.2744 627.6815 621.3653 613.9823 607.2653 600.3204 591.251 584.361 577.0946 568.1053 558.3121 550.2844 552.3472 560.2399 566.8061 578.8807 581.9668 583.1068 583.833 585.8058 588.4225 593.1035 599.4136 604.7125 610.5273 616.1982 623.441 632.8768 640.666 646.7589 652.6583 659.767 662.7259 659.2382 655.301 650.3328 648.4293 648.7676 647.6901 646.1935 640.6416 632.972 625.301 616.3208 608.3823 604.6646 605.9858 607.0435 610.093 615.1177 618.4125 617.3221 614.8372 613.1722 608.4402 601.5449 596.073 590.2978 583.7461 576.9026 569.8967 564.2343 558.1391 552.4149 546.479 541.4711 536.288 531.2024 526.6418 522.3975 518.2278 515.5395 515.1653 511.2952 505.5977 498.5865 490.6846 482.6569 473.5731 467.3468 468.2772 476.093 484.6 497.6439 509.5082 517.6799 521.4595 523.6823 523.981 524.6035 525.3746 527.8069 531.4508 535.1427 538.4727 546.3997 553.2448 559.7317 566.5638 570.2785 575.3755 581.3717 589.0283 595.7468 600.8354 606.8339 613.0701 619.9083 625.9304 631.2713 634.6096 635.8989 -9999 -9999 -9999 -9999 -9999 -9999 -9999 -9999 -9999 -9999 -9999 -9999 -9999 -9999 -9999 -9999 -9999 -9999 -9999 -9999 -9999 -9999 -9999 -9999 -9999 -9999 -9999 -9999 -9999 -9999 -9999 -9999 -9999 -9999 -9999 -9999 -9999 -9999 -9999 -9999 -9999 -9999 -9999 -9999
-9999 -9999 -9999 -9999 -9999 -9999 -9999 -9999 -9999 -9999 -9999 -9999 -9999 -9999 -9999 -9999 -9999 -9999 -9999 -9999 -9999 -9999 -9999 -9999 -9999 -9999 -9999 -9999 -9999 -9999 -9999 -9999 -9999 -9999 -9999 -9999 -9999 -9999 -9999 685.1256 679.9319 674.2145 668.9103 663.4368 657.5588 651.9504 646.829 641.4196 636.571 631.0313 625.1707 619.1318 612.376 606.696 600.3768 593.5736 585.7799 577.3263 569.5531 561.7738 550.7858 546.9987 554.5097 562.2539 571.0794 570.5498 574.1617 576.3151 578.5402 583.3011 587.7435 593.4083 599.3344 606.7875 613.5579 622.2233 631.1685 636.2258 641.5887 647.7107 653.9004 656.7472 652.9327 647.2642 641.9225 638.6162 638.2009 637.061 638.3777 638.3213 632.5172 625.8497 617.7016 609.3386 601.2813 596.0867 598.0763 601.8451 606.0514 606.9696 608.3397 608.7336 611.6049 606.6503 601.4702 595.7354 589.4459 583.0732 576.4484 569.931 563.07 557.0517 550.3256 544.4978 538.4094 532.606 526.5847 521.5403 517.2578 511.6663 508.9886 507.1369 503.5647 499.0308 493.1725 485.4656 477.9226 470.4299 465.5462 468.7207 478.5954 488.3346 497.5151 508.1229 518.3017 524.4191 527.7033 531.0743 532.8727 533.8519 534.9301 536.4572 540.1932 545.4259 547.4879 550.417 554.7589 560.5432 567.7388 574.2745 580.1708 586.7042 592.1456 598.6569 603.9399 610.0626 616.1326 622.2721 627.7128 631.733 633.2738 -9999 -9999 -9999 -9999 -9999 -9999 -9999 -9999 -9999 -9999 -9999 -9999 -9999 -9999 -9999 -9999 -9999 -9999 -9999 -9999 -9999 -9999 -9999 -9999 -9999 -9999 -9999 -9999 -9999 -9999 -9999 -9999 -9999 -9999 -9999 -9999 -9999 -9999 -9999 -9999 -9999 -9999 -9999 -9999
-9999 -9999 -9999 -9999 -9999 -9999 -9999 -9999 -9999 -9999 -9999 -9999 -9999 -9999 -9999 -9999 -9999 -9999 -9999 -9999 -9999 -9999 -9999 -9999 -9999 -9999 -9999 -9999 -9999 -9999 -9999 -9999 -9999 -9999 -9999 -9999 -9999 -9999 -9999 683.7654 679.064 673.4487 667.7635 661.4617 655.6972 649.778 643.314 637.0046 631.3224 627.0414 619.4885 614.265 608.7572 602.249 595.8093 590.5073 584.4921 578.2064 570.533 560.8739 547.164 541.9801 549.5316 558.4584 559.5732 560.6934 565.0078 575.0479 579.4766 584.8076 589.1578 594.802 601.0245 606.6785 614.5972 620.1506 627.2753 631.794 636.7333 642.0864 648.0566 650.9133 646.6758 641.4722 634.8557 629.7076 628.256 626.5941 627.3051 630.7173 628.5327 623.9622 616.6005 608.7397 600.1428 589.9191 589.0961 593.3268 596.1248 597.7014 598.9983 601.8246 604.4504 603.1946 599.0288 593.9424 588.738 582.3562 575.9448 569.8008 563.4769 557.8968 552.3113 545.9814 540.0309 533.0403 526.7074 521.2545 515.1753 509.349 505.0026 501.3488 498.0158 492.2947 487.571 479.6683 471.5889 466.2404 462.4837 468.7588 478.2899 487.0224 497.0374 507.6124 516.9187 524.2773 529.8209 533.2377 537.7449 540.3616 541.971 544.0261 547.7935 551.6492 553.0886 554.7322 558.0034 562.6532 567.2107 572.0959 577.4871 582.4263 588.6069 594.5711 601.2416 607.5289 613.2874 619.2454 624.3645 629.0493 630.8506 -9999 -9999 -9999 -9999 -9999 -9999 -9999 -9999 -9999 -9999 -9999 -9999 -9999 -9999 -9999 -9999 -9999 -9999 -9999 -9999 -9999 -9999 -9999 -9999 -9999 -9999 -9999 -9999 -9999 -9999 -9999 -9999 -9999 -9999 -9999 -9999 -9999 -9999 -9999 -9999 -9999 -9999 -9999 -9999
-9999 -9999 -9999 -9999 -9999 -9999 -9999 -9999 -9999 -9999 -9999 -9999 -9999 -9999 -9999 -9999 -9999 -9999 -9999 -9999 -9999 -9999 -9999 -9999 -9999 -9999 -9999 -9999 -9999 -9999 -9999 -9999 -9999 -9999 -9999 -9999 -9999 -9999 -9999 682.6438 677.4683 672.1907 665.879 660.2784 653.5811 647.4036 640.8481 634.2713 626.399 619.9304 613.4329 607.5997 603.2373 597.5551 591.6183 587.1637 581.7085 575.0563 569.5226 557.704 543.8066 535.9138 543.9431 547.4749 550.4528 563.8183 574.0824 579.9536 584.8502 587.9485 595.3917 600.3608 604.5914 611.1652 615.9627 619.6805 622.8634 626.9233 632.1194 638.0447 644.5172 645.8278 640.9617 634.6843 628.8618 622.8558 620.2886 619.4305 618.2601 619.493 620.3495 617.2147 613.2728 604.9747 596.8045 587.6727 580.311 583.6478 586.996 588.4362 590.3054 594.8896 596.4905 595.4047 593.7352 589.9861 586.5282 581.6094 576.6496 569.3992 562.5168 555.4797 549.7068 544.1213 539.1409 534.258 528.697 523.0703 517.3485 512.1798 505.9733 501.1819 495.4524 489.9424 483.0059 476.9221 469.8873 464.2935 460.85 467.5106 476.3963 485.3033 495.1476 507.1781 516.5323 522.6315 527.131 530.0884 533.5775 537.895 543.4302 547.609 551.5478 552.386 554.5562 556.8163 560.1058 564.5757 568.1205 571.4299 575.7961 580.977 586.5381 592.3422 598.6996 604.8406 610.4755 615.9909 622.0618 626.4227 629.3518 -9999 -9999 -9999 -9999 -9999 -9999 -9999 -9999 -9999 -9999 -9999 -9999 -9999 -9999 -9999 -9999 -9999 -9999 -9999 -9999 -9999 -9999 -9999 -9999 -9999 -9999 -9999 -9999 -9999 -9999 -9999 -9999 -9999 -9999 -9999 -9999 -9999 -9999 -9999 -9999 -9999 -9999 -9999 -9999
-9999 -9999 -9999 -9999 -9999 -9999 -9999 -9999 -9999 -9999 -9999 -9999 -9999 -9999 -9999 -9999 -9999 -9999 -9999 -9999 -9999 -9999 -9999 -9999 -9999 -9999 -9999 -9999 -9999 -9999 -9999 -9999 -9999 -9999 -9999 -9999 -9999 -9999 -9999 679.899 675.958 670.3695 664.1592 658.2872 651.5809 645.5176 638.7914 629.1027 622.2263 617.0813 613.9663 609.7311 604.5319 597.549 590.0159 583.6707 576.0918 569.9745 563.0891 552.6016 543.3418 533.3954 535.7066 541.6426 556.151 566.2673 575.0708 581.0608 585.5818 590.0867 595.8901 602.2437 606.5802 610.2507 613.4656 615.1123 616.9998 621.1337 627.8636 635.4585 642.3249 644.0211 637.1943 629.9927 623.6855 617.0714 612.584 611.3016 610.0763 610.7095 610.7803 608.3534 605.9691 600.7319 593.1309 585.1855 574.724 574.3743 578.4243 580.0245 582.754 588.5086 588.0834 586.2958 586.1327 584.3542 582.6389 579.6595 574.1541 567.9918 560.4624 552.828 545.9227 540.591 535.8849 532.5999 528.8737 523.9207 519.5438 515.1097 508.2593 501.729 497.8596 494.2416 487.2716 479.0801 472.0834 463.3372 460.7105 466.834 474.7207 485.711 500.5517 507.3747 513.0089 516.7587 519.6947 523.4087 528.2009 533.208 538.2501 543.0957 546.3906 547.4185 549.3533 551.7352 554.9204 559.7774 564.9666 571.5442 577.2119 582.1238 587.4426 593.0059 597.7951 602.9744 608.7847 613.7766 619.1281 624.1481 -9999 -9999 -9999 -9999 -9999 -9999 -9999 -9999 -9999 -9999 -9999 -9999 -9999 -9999 -9999 -9999 -9999 -9999 -9999 -9999 -9999 -9999 -9999 -9999 -9999 -9999 -9999 -9999 -9999 -9999 -9999 -9999 -9999 -9999 -9999 -9999 -9999 -9999 -9999 -9999 -9999 -9999 -9999 -9999 -9999
-9999 -9999 -9999 -9999 -9999 -9999 -9999 -9999 -9999 -9999 -9999 -9999 -9999 -9999 -9999 -9999 -9999 -9999 -9999 -9999 -9999 -9999 -9999 -9999 -9999 -9999 -9999 -9999 -9999 -9999 -9999 -9999 -9999 -9999 -9999 -9999 -9999 -9999 -9999 -9999 675.1937 670.3032 663.8727 657.6251 651.5352 645.408 637.3536 630.6487 626.2032 622.2188 620.5873 616.8306 607.6074 598.4398 590.2162 582.8226 576.767 568.7324 560.0547 551.4366 543.082 532.4703 534.0797 546.447 557.2049 566.2598 571.9915 577.0352 582.1916 587.9181 594.8423 599.8159 603.2784 606.11 608.502 610.2249 612.9407 617.9203 624.8796 632.082 639.1138 641.316 634.2789 626.7191 619.0435 611.7885 606.6282 604.2165 602.1934 601.9633 601.2104 599.2543 597.3768 594.9727 589.2097 581.5333 572.2445 565.6288 569.9493 572.1569 575.4236 580.5335 579.4675 577.388 577.3179 578.7222 578.2513 575.3611 569.8389 564.1589 558.2222 550.8178 544.3636 538.734 532.7546 528.7845 526.2448 524.6423 521.442 517.0162 510.5004 504.1392 500.4229 496.4552 490.1123 481.9132 472.2587 462.8091 458.948 466.5833 477.8578 486.8205 495.9873 501.7663 505.251 508.2952 512.2941 517.0155 522.873 528.3007 533.5013 536.5593 538.7965 540.655 542.5105 545.7391 547.7126 553.532 560.6003 567.1665 574.071 581.3107 587.9089 594.9185 600.7578 605.2101 609.3028 614.7161 619.7712 623.2985 -9999 -9999 -9999 -9999 -9999 -9999 -9999 -9999 -9999 -9999 -9999 -9999 -9999 -9999 -9999 -9999 -9999 -9999 -9999 -9999 -9999 -9999 -9999 -9999 -9999 -9999 -9999 -9999 -9999 -9999 -9999 -9999 -9999 -9999 -9999 -9999 -9999 -9999 -9999 -9999 -9999 -9999 -9999 -9999 -9999
-9999 -9999 -9999 -9999 -9999 -9999 -9999 -9999 -9999 -9999 -9999 -9999 -9999 -9999 -9999 -9999 -9999 -9999 -9999 -9999 -9999 -9999 -9999 -9999 -9999 -9999 -9999 -9999 -9999 -9999 -9999 -9999 -9999 -9999 -9999 -9999 -9999 -9999 -9999 -9999 673.9684 669.6814 663.7195 658.1348 652.0411 645.8743 639.5352 634.7026 630.7531 627.4857 625.4968 619.49 610.5975 599.169 589.0077 580.6966 573.1855 565.8026 557.7894 548.8861 540.1674 528.1871 529.7546 541.9062 553.2707 560.9364 566.1508 571.9664 579.0758 586.2668 592.5716 595.5769 597.8865 600.7365 603.2823 604.9426 608.5842 613.9442 620.9774 628.2157 633.9124 638.1895 632.8882 625.1639 616.7689 609.1207 602.089 597.6434 595.1198 593.6453 592.6105 590.6255 588.6115 587.0471 581.9173 577.5838 570.4081 560.1172 559.8292 564.2983 567.9811 571.1777 571.42 569.198 570.0987 571.9458 572.5333 571.1038 566.47 560.6964 555.5521 549.5674 544.593 539.0114 532.5573 526.9588 525.3731 523.7112 521.8146 518.1349 511.9817 506.3208 501.8448 497.2263 489.9409 479.3986 469.6389 462.883 456.1606 467.0298 476.0687 482.7163 488.1791 492.7366 497.8954 501.7366 506.9083 512.3513 518.3483 524.1951 527.6599 528.9362 530.3795 530.7993 532.814 537.9461 544.9527 551.2384 557.6354 563.2354 570.575 579.4255 588.9163 596.5309 603.3272 608.0082 612.603 617.38 620.7427 -9999 -9999 -9999 -9999 -9999 -9999 -9999 -9999 -9999 -9999 -9999 -9999 -9999 -9999 -9999 -9999 -9999 -9999 -9999 -9999 -9999 -9999 -9999 -9999 -9999 -9999 -9999 -9999 -9999 -9999 -9999 -9999 -9999 -9999 -9999 -9999 -9999 -9999 -9999 -9999 -9999 -9999 -9999 -9999 -9999 -9999
-9999 -9999 -9999 -9999 -9999 -9999 -9999 -9999 -9999 -9999 -9999 -9999 -9999 -9999 -9999 -9999 -9999 -9999 -9999 -9999 -9999 -9999 -9999 -9999 -9999 -9999 -9999 -9999 -9999 -9999 -9999 -9999 -9999 -9999 -9999 -9999 -9999 -9999 -9999 -9999 -9999 668.2694 663.6121 658.3139 653.1796 647.5339 642.6205 638.0995 633.5062 628.9518 623.4318 614.6765 604.8542 595.4931 586.9153 579.5338 571.91 562.8665 554.3055 544.545 535.244 525.255 525.1453 537.3571 546.3029 554.5928 561.8752 569.1218 576.5947 583.4962 589.0336 590.5424 592.871 595.0511 596.4898 599.3732 603.7105 609.2754 616.5761 623.457 629.1461 635.1819 631.9358 623.9584 615.424 607.1791 599.1888 592.9861 589.1967 586.3964 584.7093 582.6839 580.9861 579.6404 575.6316 571.7629 566.7177 557.691 550.004 556.1175 559.1785 563.0944 563.3565 562.0474 563.6583 566.8122 567.5658 567.5536 564.5719 558.3243 551.7558 547.0878 542.1439 537.2664 533.0724 528.9255 526.7028 524.5974 523.1442 518.7018 513.6749 508.094 503.8359 497.8565 488.804 478.6869 469.9673 462.1751 452.9252 459.1675 469.427 476.4093 480.9515 486.5782 491.4771 496.9413 502.9558 509.3459 514.8491 519.5019 520.379 520.4056 520.4247 522.4752 530.3207 538.1846 546.5201 553.3796 559.9237 565.343 571.8993 579.2983 589.103 596.6498 602.9729 608.8273 614.0326 618.4727 620.9188 -9999 -9999 -9999 -9999 -9999 -9999 -9999 -9999 -9999 -9999 -9999 -9999 -9999 -9999 -9999 -9999 -9999 -9999 -9999 -9999 -9999 -9999 -9999 -9999 -9999 -9999 -9999 -9999 -9999 -9999 -9999 -9999 -9999 -9999 -9999 -9999 -9999 -9999 -9999 -9999 -9999 -9999 -9999 -9999 -9999 -9999
-9999 -9999 -9999 -9999 -9999 -9999 -9999 -9999 -9999 -9999 -9999 -9999 -9999 -9999 -9999 -9999 -9999 -9999 -9999 -9999 -9999 -9999 -9999 -9999 -9999 -9999 -9999 -9999 -9999 -9999 -9999 -9999 -9999 -9999 -9999 -9999 -9999 -9999 -9999 -9999 -9999 666.6494 662.0576 657.9794 653.4081 648.8445 644.3914 638.9164 633.1107 625.9875 619.5403 610.2621 600.7189 591.9468 585.2206 579.3623 571.1899 560.592 550.625 542.1043 531.8715 522.5049 520.7958 531.6901 541.5748 549.7936 559.0184 566.0327 572.7184 578.8106 583.8193 585.5497 587.0463 589.0656 591.0903 594.1505 599.6575 604.8512 612.3661 619.4176 625.4679 631.3521 629.7465 623.4791 615.1626 606.7349 598.0458 590.6849 584.7153 580.2546 577.042 574.6776 573.0027 571.7324 569.5813 564.6176 560.976 554.3002 543.3944 547.7759 551.8983 554.5668 555.6298 555.264 558.0637 561.3486 563.8861 564.0751 561.8272 556.1617 549.0469 542.5287 538.3492 536.3322 533.7528 531.0332 529.3279 527.4396 524.6987 520.542 516.2322 509.5768 503.8512 496.808 488.1098 479.2706 470.8002 463.6221 452.0756 450.9486 462.3809 467.452 475.11 480.6932 486.1774 493.4042 499.9619 507.2451 511.8141 512.4458 512.3536 511.7036 519.3845 526.8879 534.7145 541.2455 547.3408 553.7073 559.3225 565.9229 572.4875 579.2587 587.3237 594.7349 601.6653 607.1883 613.1761 617.8654 -9999 -9999 -9999 -9999 -9999 -9999 -9999 -9999 -9999 -9999 -9999 -9999 -9999 -9999 -9999 -9999 -9999 -9999 -9999 -9999 -9999 -9999 -9999 -9999 -9999 -9999 -9999 -9999 -9999 -9999 -9999 -9999 -9999 -9999 -9999 -9999 -9999 -9999 -9999 -9999 -9999 -9999 -9999 -9999 -9999 -9999 -9999
-9999 -9999 -9999 -9999 -9999 -9999 -9999 -9999 -9999 -9999 -9999 -9999 -9999 -9999 -9999 -9999 -9999 -9999 -9999 -9999 -9999 -9999 -9999 -9999 -9999 -9999 -9999 -9999 -9999 -9999 -9999 -9999 -9999 -9999 -9999 -9999 -9999 -9999 -9999 -9999 666.7028 664.7757 661.0494 657.5275 653.6253 649.9235 644.5408 637.8138 631.2545 624.4514 618.0353 607.7377 598.6226 590.2025 583.7568 577.4802 569.4144 559.958 549.86 540.6497 530.5417 520.6792 517.3035 528.252 536.8039 546.2702 554.5455 562.1708 567.4187 573.6732 578.1035 580.2386 581.992 583.5922 585.8302 590.0852 595.6775 601.7011 608.2719 615.6274 622.0404 627.4102 628.2994 623.3861 615.1969 606.901 598.2881 590.0295 582.5597 575.579 570.9399 567.7936 565.199 563.8739 563.134 558.8371 554.0578 549.0629 541.2928 537.1117 543.5186 545.7665 547.6205 550.1625 552.5574 557.163 561.4591 563.1348 560.5074 556.0131 548.035 540.5757 536.1821 535.8932 534.8798 532.5374 531.1956 528.4523 525.1567 521.333 516.2001 508.9207 502.4582 494.919 487.8964 480.2703 471.8274 463.8286 453.4586 448.8813 453.8655 461.6074 469.6259 476.6142 484.6404 491.3963 499.6571 504.7 505.5916 502.8476 506.5022 514.0772 520.9573 527.4206 533.2567 539.2224 545.1851 551.166 558.0766 564.5787 571.5472 578.5698 586.9328 593.3503 599.7992 606.4827 611.012 616.4237 -9999 -9999 -9999 -9999 -9999 -9999 -9999 -9999 -9999 -9999 -9999 -9999 -9999 -9999 -9999 -9999 -9999 -9999 -9999 -9999 -9999 -9999 -9999 -9999 -9999 -9999 -9999 -9999 -9999 -9999 -9999 -9999 -9999 -9999 -9999 -9999 -9999 -9999 -9999 -9999 -9999 -9999 -9999 -9999 -9999 -9999 -9999
-9999 -9999 -9999 -9999 -9999 -9999 -9999 -9999 -9999 -9999 -9999 -9999 -9999 -9999 -9999 -9999 -9999 -9999 -9999 -9999 -9999 -9999 -9999 -9999 -9999 -9999 -9999 -9999 -9999 -9999 -9999 -9999 -9999 -9999 -9999 -9999 -9999 -9999 -9999 -9999 663.1663 661.1615 658.3032 656.2367 653.9004 650.2824 643.2119 636.0162 629.3464 623.0973 616.1616 607.9907 598.5053 588.6359 581.0052 573.7815 566.6064 558.1368 548.2582 538.1686 529.3096 519.2078 513.13 526.2083 537.3015 544.9489 550.8498 556.4124 562.7614 568.4116 571.7446 573.1086 575.7025 578.483 581.5287 586.2607 592.1373 598.2379 605.0912 612.0125 618.3714 622.9556 623.8654 621.1519 615.0385 606.949 598.455 590.2124 582.2892 573.8295 567.0751 561.5688 557.9867 555.8242 555.8196 554.1714 548.6499 542.8092 535.952 528.1796 536.0281 537.2969 538.0894 540.9202 548.3017 552.8386 558.4485 561.4104 559.6281 555.9293 549.4531 541.113 537.0607 535.0665 534.764 532.9474 530.6827 528.5499 524.8115 519.9987 513.4135 506.1745 500.2621 492.7549 485.5518 479.5937 472.2556 462.5066 454.0865 447.339 450.9516 457.4103 466.3356 475.0514 483.063 489.6299 497.8238 498.7831 497.0351 499.11 507.0043 512.0068 517.5961 524.3772 530.9083 537.6489 543.652 550.4238 556.5465 563.2483 570.0644 577.231 585.2244 592.6074 599.2535 605.0707 610.0504 614.5576 -9999 -9999 -9999 -9999 -9999 -9999 -9999 -9999 -9999 -9999 -9999 -9999 -9999 -9999 -9999 -9999 -9999 -9999 -9999 -9999 -9999 -9999 -9999 -9999 -9999 -9999 -9999 -9999 -9999 -9999 -9999 -9999 -9999 -9999 -9999 -9999 -9999 -9999 -9999 -9999 -9999 -9999 -9999 -9999 -9999 -9999 -9999
-9999 -9999 -9999 -9999 -9999 -9999 -9999 -9999 -9999 -9999 -9999 -9999 -9999 -9999 -9999 -9999 -9999 -9999 -9999 -9999 -9999 -9999 -9999 -9999 -9999 -9999 -9999 -9999 -9999 -9999 -9999 -9999 -9999 -9999 -9999 -9999 -9999 -9999 -9999 -9999 659.7975 656.6733 653.2695 651.7828 648.7455 645.2433 638.9492 632.585 625.9464 618.9879 611.7161 603.3989 595.3323 585.453 575.9044 566.8876 561.0347 551.3901 542.9844 535.6281 525.7343 515.8367 511.6007 522.745 534.3662 541.3583 545.3215 551.5425 557.6918 561.8744 563.7291 564.3189 565.3057 570.2137 576.2534 581.0737 587.8457 595.4375 601.8672 608.4319 614.095 617.793 617.7823 615.3737 612.1215 606.0757 598.5739 591.1276 582.6793 574.6874 566.7413 558.8036 551.5211 548.8541 548.2118 546.7258 544.6738 538.1519 529.2174 521.8245 527.573 527.6027 528.0957 533.7162 544.2471 549.5178 555.7655 558.0713 558.1772 556.1907 549.6877 542.3634 538.2288 536.1112 535.6182 533.048 529.9855 526.8049 523.0627 517.6891 510.9477 503.4252 497.298 490.9284 484.3074 477.5309 470.3117 460.8858 452.8231 446.5152 447.1081 455.8025 464.1472 473.6287 480.2025 487.8217 493.392 490.6404 490.3531 498.7343 506.8565 511.8697 518.2461 524.765 531.9613 538.9413 545.3002 551.3077 556.6022 562.7599 569.0426 575.7344 582.7898 590.63 597.4347 603.6922 608.3267 612.0521 -9999 -9999 -9999 -9999 -9999 -9999 -9999 -9999 -9999 -9999 -9999 -9999 -9999 -9999 -9999 -9999 -9999 -9999 -9999 -9999 -9999 -9999 -9999 -9999 -9999 -9999 -9999 -9999 -9999 -9999 -9999 -9999 -9999 -9999 -9999 -9999 -9999 -9999 -9999 -9999 -9999 -9999 -9999 -9999 -9999 -9999 -9999
-9999 -9999 -9999 -9999 -9999 -9999 -9999 -9999 -9999 -9999 -9999 -9999 -9999 -9999 -9999 -9999 -9999 -9999 -9999 -9999 -9999 -9999 -9999 -9999 -9999 -9999 -9999 -9999 -9999 -9999 -9999 -9999 -9999 -9999 -9999 -9999 -9999 -9999 -9999 -9999 655.9745 651.8247 647.0782 644.6886 641.0584 637.8954 633.9139 629.2245 622.4778 615.0864 607.1327 600.0483 591.2328 581.4974 572.3596 563.8267 555.1117 546.6862 538.6288 530.067 521.0137 510.9873 509.0899 517.6152 526.6693 534.2839 540.572 546.2969 551.3428 552.4271 554.1599 554.8587 559.9725 565.3095 570.7677 576.8584 586.0908 593.2025 598.74 603.9688 609.2053 613.2523 611.3663 609.0674 606.4575 602.7633 596.8655 590.2383 582.2594 574.1182 566.4365 557.7056 550.3362 543.2786 540.0873 541.2021 539.2789 534.2115 526.2029 515.3375 518.24 517.2555 522.4806 536.8831 541.827 547.7607 551.2354 553.8582 555.7061 555.5224 552.0789 546.7739 542.6164 540.8158 538.8742 534.9819 530.5997 526.158 520.4163 514.3378 506.903 500.525 495.7267 490.2327 483.966 476.6874 468.0486 459.9158 452.3568 444.4357 444.3969 453.0799 463.1208 472.8134 481.6229 487.5627 487.3044 482.2477 488.7247 496.5832 503.9609 509.9403 515.986 522.9804 531.3822 538.6662 546.9651 552.5902 558.7114 564.7327 570.4225 576.4644 583.2272 589.5274 597.0537 602.3206 605.614 609.0323 -9999 -9999 -9999 -9999 -9999 -9999 -9999 -9999 -9999 -9999 -9999 -9999 -9999 -9999 -9999 -9999 -9999 -9999 -9999 -9999 -9999 -9999 -9999 -9999 -9999 -9999 -9999 -9999 -9999 -9999 -9999 -9999 -9999 -9999 -9999 -9999 -9999 -9999 -9999 -9999 -9999 -9999 -9999 -9999 -9999 -9999 -9999
-9999 -9999 -9999 -9999 -9999 -9999 -9999 -9999 -9999 -9999 -9999 -9999 -9999 -9999 -9999 -9999 -9999 -9999 -9999 -9999 -9999 -9999 -9999 -9999 -9999 -9999 -9999 -9999 -9999 -9999 -9999 -9999 -9999 -9999 -9999 -9999 -9999 -9999 -9999 -9999 652.9387 646.5494 641.3793 637.2355 633.7973 630.84 627.7988 624.8042 618.7524 612.5367 604.6821 596.5211 586.7019 577.4741 569.009 561.168 551.9021 542.8214 535.0231 525.9568 517.03 508.9932 502.5436 509.458 517.2395 526.5428 534.8372 540.8112 544.3827 543.5026 546.4279 550.5046 555.5445 562.798 569.1828 576.8485 584.4959 589.7529 593.8868 598.5495 604.4672 608.0562 606.0201 602.3816 599.1339 597.0087 592.3903 586.2142 580.1434 572.8137 565.561 558.402 550.4025 542.957 535.6296 533.2156 534.1681 529.8666 522.7007 512.1219 506.9418 510.3442 520.7219 527.6774 535.9771 541.827 546.0728 548.7726 550.3766 552.197 551.7993 550.1091 546.3601 543.1453 539.5547 535.2623 530.2294 524.9456 518.301 510.6444 505.0559 498.9622 493.4087 488.2363 482.1548 476.0656 467.9122 459.6933 451.7586 443.0131 443.1479 452.516 462.4464 471.1141 478.4431 483.5682 481.2152 477.8632 484.8918 492.931 499.3965 506.2499 513.8349 521.6401 529.0947 537.2238 545.7352 553.3621 559.9077 567.011 572.6255 578.198 584.3229 590.1416 596.9455 601.4428 604.17 -9999 -9999 -9999 -9999 -9999 -9999 -9999 -9999 -9999 -9999 -9999 -9999 -9999 -9999 -9999 -9999 -9999 -9999 -9999 -9999 -9999 -9999 -9999 -9999 -9999 -9999 -9999 -9999 -9999 -9999 -9999 -9999 -9999 -9999 -9999 -9999 -9999 -9999 -9999 -9999 -9999 -9999 -9999 -9999 -9999 -9999 -9999 -9999
-9999 -9999 -9999 -9999 -9999 -9999 -9999 -9999 -9999 -9999 -9999 -9999 -9999 -9999 -9999 -9999 -9999 -9999 -9999 -9999 -9999 -9999 -9999 -9999 -9999 -9999 -9999 -9999 -9999 -9999 -9999 -9999 -9999 -9999 -9999 -9999 -9999 -9999 -9999 652.6469 648.6647 642.2045 636.3051 630.635 627.4857 624.5657 621.2388 618.7607 614.9196 608.0211 600.8591 592.1494 582.1589 574.4337 566.9029 558.8676 550.0908 540.703 532.0444 522.5385 514.3843 508.3447 499.1687 503.1463 512.9007 522.1072 528.4714 534.9034 536.9532 537.5255 544.2981 549.4774 555.1924 561.5186 568.4261 575.6605 579.9224 583.7484 588.3372 593.9005 599.3328 602.7603 600.8995 596.4144 592.5084 588.8546 586.3376 581.4532 575.8671 569.1759 562.3918 554.9936 547.9832 541.273 532.6411 526.3355 527.0403 524.5776 517.7006 508.5413 500.4473 506.013 513.8273 517.5009 527.5623 536.7391 539.3231 542.6499 544.2676 546.2656 547.625 549.5514 548.0205 544.2386 539.2255 533.8641 528.9492 522.9263 515.9883 508.9977 503.3788 496.9002 490.3447 484.3973 477.9363 472.0514 465.8578 457.0339 448.3814 441.5904 442.5087 448.8447 457.738 464.17 470.7103 475.3874 473.6744 473.9998 482.4367 489.3518 496.8926 504.7282 512.97 520.5389 527.8381 535.8613 542.8275 551.2239 559.3873 566.4175 572.4753 578.2582 584.8152 590.438 595.7294 599.8068 601.4497 -9999 -9999 -9999 -9999 -9999 -9999 -9999 -9999 -9999 -9999 -9999 -9999 -9999 -9999 -9999 -9999 -9999 -9999 -9999 -9999 -9999 -9999 -9999 -9999 -9999 -9999 -9999 -9999 -9999 -9999 -9999 -9999 -9999 -9999 -9999 -9999 -9999 -9999 -9999 -9999 -9999 -9999 -9999 -9999 -9999 -9999 -9999 -9999
-9999 -9999 -9999 -9999 -9999 -9999 -9999 -9999 -9999 -9999 -9999 -9999 -9999 -9999 -9999 -9999 -9999 -9999 -9999 -9999 -9999 -9999 -9999 -9999 -9999 -9999 -9999 -9999 -9999 -9999 -9999 -9999 -9999 -9999 -9999 -9999 -9999 -9999 -9999 -9999 644.95 638.3358 631.5052 625.938 621.6968 617.9096 614.3618 612.2754 610.1837 603.488 595.4847 586.4786 577.2333 570.3555 561.5627 553.1617 545.8442 537.5788 529.702 521.4412 513.0919 504.3929 496.8872 499.5161 507.7214 515.8336 521.8839 527.9479 527.3779 534.8768 541.8171 547.9268 553.9451 560.1599 566.0814 571.3735 574.4711 578.8083 583.7804 589.1823 593.8281 596.9691 595.6432 590.9623 585.8645 582.4065 578.8899 575.3192 570.6298 565.5839 558.4934 551.3359 543.4653 536.6035 528.4326 522.0234 518.2408 517.3599 512.4458 504.0325 494.8725 499.9871 505.6815 510.9858 519.463 527.6614 533.7505 536.3695 537.777 540.1719 542.7185 545.2263 546.0325 543.8554 538.1724 533.3825 527.6835 521.3314 514.7043 508.2822 501.8204 495.0699 488.8123 482.1898 475.0788 466.8195 458.9762 452.0839 445.2884 440.3766 440.7019 444.2628 452.433 458.2531 464.2173 466.1725 465.7138 472.616 481.0941 489.14 496.6007 504.2063 512.416 519.7374 526.5306 533.8184 540.863 549.1117 557.6506 564.9064 571.4253 576.5414 582.69 588.3829 592.0977 596.14 598.6021 -9999 -9999 -9999 -9999 -9999 -9999 -9999 -9999 -9999 -9999 -9999 -9999 -9999 -9999 -9999 -9999 -9999 -9999 -9999 -9999 -9999 -9999 -9999 -9999 -9999 -9999 -9999 -9999 -9999 -9999 -9999 -9999 -9999 -9999 -9999 -9999 -9999 -9999 -9999 -9999 -9999 -9999 -9999 -9999 -9999 -9999 -9999 -9999
-9999 -9999 -9999 -9999 -9999 -9999 -9999 -9999 -9999 -9999 -9999 -9999 -9999 -9999 -9999 -9999 -9999 -9999 -9999 -9999 -9999 -9999 -9999 -9999 -9999 -9999 -9999 -9999 -9999 -9999 -9999 -9999 -9999 -9999 -9999 -9999 -9999 -9999 -9999 -9999 641.2482 634.647 627.7455 621.6769 616.4984 611.8044 607.951 605.0402 604.1197 598.548 588.3349 578.9394 571.7773 564.7441 554.3771 545.6385 538.5961 532.212 525.5034 517.8872 510.3983 502.667 497.3673 493.0178 500.554 509.9731 517.6632 519.415 523.0414 531.2915 538.5382 544.5313 551.4266 557.2117 561.8097 565.0344 568.3651 573.2382 578.7253 583.7736 587.6932 591.2724 590.0029 586.4207 580.8643 576.565 572.0144 567.8378 565.132 561.2725 555.7037 549.178 542.195 532.667 523.9017 517.8224 511.507 509.8939 506.9647 501.1499 490.6693 494.4176 498.8144 506.5631 512.7658 520.4338 526.7889 529.6982 530.8793 533.5562 537.2527 540.0111 542.4907 542.4229 537.6192 531.1361 526.161 519.7953 512.6035 505.6845 499.3028 493.504 486.8052 480.5751 474.0364 466.7905 456.7581 448.3966 442.2572 439.0606 438.4784 441.5592 448.0819 453.2094 457.3905 458.7895 463.8454 473.4763 481.4659 489.9279 497.2538 504.4356 511.7211 519.5842 526.8903 533.5951 541.1038 547.9648 555.7563 563.0875 570.1871 574.6242 579.5101 584.6613 589.8878 593.2422 -9999 -9999 -9999 -9999 -9999 -9999 -9999 -9999 -9999 -9999 -9999 -9999 -9999 -9999 -9999 -9999 -9999 -9999 -9999 -9999 -9999 -9999 -9999 -9999 -9999 -9999 -9999 -9999 -9999 -9999 -9999 -9999 -9999 -9999 -9999 -9999 -9999 -9999 -9999 -9999 -9999 -9999 -9999 -9999 -9999 -9999 -9999 -9999 -9999
-9999 -9999 -9999 -9999 -9999 -9999 -9999 -9999 -9999 -9999 -9999 -9999 -9999 -9999 -9999 -9999 -9999 -9999 -9999 -9999 -9999 -9999 -9999 -9999 -9999 -9999 -9999 -9999 -9999 -9999 -9999 -9999 -9999 -9999 -9999 -9999 -9999 -9999 -9999 -9999 637.3079 632.1011 625.7849 618.7341 612.5931 606.9528 601.6044 597.3608 596.9805 593.4631 581.1012 571.1251 563.1599 555.386 548.1935 540.6215 532.0711 525.9271 519.713 512.2209 507.0683 501.5118 495.6719 490.0422 495.9767 505.0284 511.3424 512.8016 521.1006 528.6352 534.5057 540.4752 546.6077 550.0581 554.1325 558.4043 563.1226 568.4459 574.1556 577.5762 581.7413 585.3738 584.5157 580.2844 575.5333 570.8112 566.8183 561.3502 558.3289 555.3471 549.3951 544.2234 537.4325 528.3456 519.8677 513.1826 505.0071 498.7176 498.7138 493.139 485.0968 487.6503 493.2533 498.3579 506.2713 513.8425 520.8019 523.2212 523.8353 528.2253 532.4475 535.3591 538.6586 539.9441 535.7683 530.4648 524.8381 517.9642 511.1572 504.6612 497.5212 490.4491 483.8738 478.2982 471.918 465.0631 456.1965 447.131 441.5013 437.1388 437.0192 438.5737 443.8056 448.7068 449.3019 458.5602 466.9765 475.3036 483.665 489.377 495.6642 503.2888 510.8501 518.0922 525.53 533.2347 539.9052 547.1572 554.275 560.0913 567.0674 572.7855 577.3034 583.0039 587.4471 590.8533 -9999 -9999 -9999 -9999 -9999 -9999 -9999 -9999 -9999 -9999 -9999 -9999 -9999 -9999 -9999 -9999 -9999 -9999 -9999 -9999 -9999 -9999 -9999 -9999 -9999 -9999 -9999 -9999 -9999 -9999 -9999 -9999 -9999 -9999 -9999 -9999 -9999 -9999 -9999 -9999 -9999 -9999 -9999 -9999 -9999 -9999 -9999 -9999 -9999
-9999 -9999 -9999 -9999 -9999 -9999 -9999 -9999 -9999 -9999 -9999 -9999 -9999 -9999 -9999 -9999 -9999 -9999 -9999 -9999 -9999 -9999 -9999 -9999 -9999 -9999 -9999 -9999 -9999 -9999 -9999 -9999 -9999 -9999 -9999 -9999 -9999 -9999 -9999 -9999 633.3782 629.5416 623.3267 616.3627 610.1387 603.2617 596.6323 591.0438 589.34 585.6412 578.038 570.405 560.3024 550.5709 542.2606 534.303 526.9161 521.0236 514.2555 508.6144 503.1814 498.5675 493.2883 486.6642 490.52 497.791 501.0081 508.8568 517.1283 524.7551 530.0792 535.9946 541.7607 543.5277 547.6722 553.2844 558.0309 563.784 567.597 571.1457 575.64 579.1597 579.5879 575.947 570.8798 565.4086 559.5602 553.5153 549.7952 547.9214 542.8069 536.7787 531.399 524.1181 516.8517 509.829 502.1702 493.4849 488.3521 485.3414 479.5075 482.6051 487.5139 491.8207 499.5146 508.0178 512.9175 515.3193 517.9908 522.0188 526.3256 530.6255 534.252 537.4478 535.1686 529.3622 523.0391 516.7183 509.7887 502.9947 495.329 488.5799 481.7364 476.1974 469.0857 463.0491 454.933 446.4695 439.7136 435.7413 435.2658 436.8691 439.1665 445.1093 453.1705 460.9353 468.4532 475.1215 481.8347 488.1319 495.0265 502.2586 509.2507 516.3655 524.5402 532.062 538.6685 546.1483 552.1399 557.736 564.5872 571.7225 576.4202 580.8856 585.5079 588.187 -9999 -9999 -9999 -9999 -9999 -9999 -9999 -9999 -9999 -9999 -9999 -9999 -9999 -9999 -9999 -9999 -9999 -9999 -9999 -9999 -9999 -9999 -9999 -9999 -9999 -9999 -9999 -9999 -9999 -9999 -9999 -9999 -9999 -9999 -9999 -9999 -9999 -9999 -9999 -9999 -9999 -9999 -9999 -9999 -9999 -9999 -9999 -9999 -9999
-9999 -9999 -9999 -9999 -9999 -9999 -9999 -9999 -9999 -9999 -9999 -9999 -9999 -9999 -9999 -9999 -9999 -9999 -9999 -9999 -9999 -9999 -9999 -9999 -9999 -9999 -9999 -9999 -9999 -9999 -9999 -9999 -9999 -9999 -9999 -9999 -9999 -9999 -9999 -9999 -9999 625.5075 621.6107 615.286 609.4621 602.348 595.3384 587.7794 581.7307 578.7466 572.9402 567.6664 562.0169 551.9714 542.5173 533.0853 524.2415 517.3896 511.5687 505.5131 500.9624 497.2744 491.2782 483.8746 483.9256 489.2977 495.8555 504.6787 511.3348 519.3053 523.9901 529.8872 533.9281 537.4782 542.4594 548.2567 553.0215 558.1185 561.325 565.1921 568.9755 572.8533 575.4281 571.5168 566.2681 559.8178 553.5663 545.8191 541.0093 540.165 539.3703 532.417 526.3507 519.6451 513.4364 506.5098 499.6853 490.869 482.7034 477.9096 474.8891 476.8154 481.1527 485.8123 494.0884 501.7412 504.9904 507.6619 510.5918 515.9426 521.1805 526.6884 531.9225 535.308 533.6057 528.2786 521.7391 514.7264 507.9157 501.3564 493.9627 487.1108 480.8098 473.9114 467.1815 461.1403 451.9209 443.0558 436.8257 434.4307 434.3751 435.9432 436.7182 442.4332 451.2274 461.1876 469.0933 476.1304 482.4413 489.7267 497.1425 504.3586 510.6672 517.3142 524.2385 532.0353 537.4158 543.3091 549.4851 555.5247 562.4337 568.8528 574.4764 578.3367 582.3349 584.6239 -9999 -9999 -9999 -9999 -9999 -9999 -9999 -9999 -9999 -9999 -9999 -9999 -9999 -9999 -9999 -9999 -9999 -9999 -9999 -9999 -9999 -9999 -9999 -9999 -9999 -9999 -9999 -9999 -9999 -9999 -9999 -9999 -9999 -9999 -9999 -9999 -9999 -9999 -9999 -9999 -9999 -9999 -9999 -9999 -9999 -9999 -9999 -9999 -9999
-9999 -9999 -9999 -9999 -9999 -9999 -9999 -9999 -9999 -9999 -9999 -9999 -9999 -9999 -9999 -9999 -9999 -9999 -9999 -9999 -9999 -9999 -9999 -9999 -9999 -9999 -9999 -9999 -9999 -9999 -9999 -9999 -9999 -9999 -9999 -9999 -9999 -9999 -9999 -9999 -9999 623.7397 617.851 612.0948 606.1421 599.4273 592.9831 584.7542 577.0657 571.9771 567.0134 561.8463 558.2176 552.6016 545.6362 535.5892 526.1016 518.1531 510.6962 504.9492 500.6584 496.2586 491.3338 484.8629 478.0666 484.5306 491.5441 497.3216 505.0627 512.0404 517.3515 522.9918 526.8826 530.7322 536.2209 542.0167 547.2227 551.6263 555.684 558.9446 562.8612 568.4109 571.561 568.945 562.8437 556.4078 549.5986 542.5844 537.021 531.271 532.0795 530.8145 526.5367 519.2778 512.6202 506.221 497.964 491.4504 484.7608 477.5713 469.9193 472.2183 475.3912 481.0323 489.3031 494.6081 497.2401 499.4407 505.5146 512.4572 519.0569 524.3086 530.0898 532.8643 531.879 527.3002 521.1166 513.8875 506.6005 499.3851 492.6056 485.2835 478.7715 472.1314 465.3564 458.7354 449.5861 440.7545 434.8963 433.9049 432.6133 434.3232 435.6651 442.7296 453.2155 461.3621 469.6557 478.1756 485.7994 493.5833 499.2022 506.08 512.3856 519.0005 524.2736 529.6967 534.5369 539.8762 546.7777 553.4086 558.8226 564.802 570.9232 575.5653 578.6224 580.4078 -9999 -9999 -9999 -9999 -9999 -9999 -9999 -9999 -9999 -9999 -9999 -9999 -9999 -9999 -9999 -9999 -9999 -9999 -9999 -9999 -9999 -9999 -9999 -9999 -9999 -9999 -9999 -9999 -9999 -9999 -9999 -9999 -9999 -9999 -9999 -9999 -9999 -9999 -9999 -9999 -9999 -9999 -9999 -9999 -9999 -9999 -9999 -9999 -9999
-9999 -9999 -9999 -9999 -9999 -9999 -9999 -9999 -9999 -9999 -9999 -9999 -9999 -9999 -9999 -9999 -9999 -9999 -9999 -9999 -9999 -9999 -9999 -9999 -9999 -9999 -9999 -9999 -9999 -9999 -9999 -9999 -9999 -9999 -9999 -9999 -9999 -9999 -9999 -9999 -9999 621.8004 616.4832 610.2988 603.5741 596.4921 589.5861 582.9453 576.1376 569.416 562.8536 556.7249 552.8935 548.0731 542.2385 536.118 528.1354 520.4833 511.017 503.7826 498.4539 493.8941 490.0971 484.0414 476.0085 480.3648 484.2434 491.7948 499.3523 505.2601 510.6101 515.5859 519.4447 525.1453 530.003 536.3924 541.0009 544.382 548.8374 552.8036 558.114 564.8431 568.068 566.2224 560.7078 553.6563 546.3312 539.0815 532.1838 523.1245 521.7239 522.2397 521.6888 519.3228 514.1892 509.0046 502.491 495.6841 487.6671 478.536 466.8515 464.6973 469.4621 477.6963 484.5108 487.9345 490.424 496.8903 503.5707 509.5814 516.2146 521.8771 526.3073 529.8262 530.08 525.847 519.8387 512.1882 504.4608 497.3422 490.4613 483.9538 476.6028 469.9498 463.9087 456.5363 449.106 440.4436 433.3471 431.3232 431.0451 432.6118 433.4317 442.1429 453.3016 460.93 469.3364 477.0577 483.8951 492.0204 497.9259 504.1384 510.2649 516.8616 522.5331 527.6492 532.3332 537.9521 543.6131 549.7838 555.7022 560.576 566.5043 572.2308 575.6598 577.4307 -9999 -9999 -9999 -9999 -9999 -9999 -9999 -9999 -9999 -9999 -9999 -9999 -9999 -9999 -9999 -9999 -9999 -9999 -9999 -9999 -9999 -9999 -9999 -9999 -9999 -9999 -9999 -9999 -9999 -9999 -9999 -9999 -9999 -9999 -9999 -9999 -9999 -9999 -9999 -9999 -9999 -9999 -9999 -9999 -9999 -9999 -9999 -9999 -9999
-9999 -9999 -9999 -9999 -9999 -9999 -9999 -9999 -9999 -9999 -9999 -9999 -9999 -9999 -9999 -9999 -9999 -9999 -9999 -9999 -9999 -9999 -9999 -9999 -9999 -9999 -9999 -9999 -9999 -9999 -9999 -9999 -9999 -9999 -9999 -9999 -9999 -9999 -9999 -9999 -9999 618.7988 615.5467 610.2919 603.7029 595.6768 588.0179 581.0563 575.3458 569.4746 562.3278 555.2458 548.3322 542.1882 535.9603 530.2468 523.9185 518.0746 512.5631 503.045 494.6172 489.8951 485.1844 482.1143 475.0087 475.0628 479.3193 487.9185 494.8443 499.1664 504.9827 508.7981 514.0543 519.3823 523.8696 528.4729 533.448 537.8608 543.2694 549.9857 557.2529 564.1033 566.4091 562.6768 556.8978 550.5046 543.4386 536.7955 528.3228 519.4645 512.7247 512.0754 512.6926 513.0074 511.4887 506.6439 500.4626 494.6165 488.2172 479.8268 466.613 458.8337 463.0331 471.0684 476.9663 481.4293 487.4011 493.5421 499.2708 505.3843 512.4374 517.9535 522.4981 526.1473 527.317 523.9474 518.2484 510.5233 502.7783 496.2464 489.3892 482.5837 475.8858 469.363 462.3107 454.2655 446.3476 438.3489 433.1002 430.8432 429.6187 430.9331 434.4215 443.359 451.5132 458.8696 467.0778 475.3752 483.4684 489.2604 494.3841 499.8255 506.557 513.3549 519.5323 527.0625 531.8074 536.3398 540.921 546.2352 552.4973 557.7512 563.752 569.2208 572.9203 574.8337 -9999 -9999 -9999 -9999 -9999 -9999 -9999 -9999 -9999 -9999 -9999 -9999 -9999 -9999 -9999 -9999 -9999 -9999 -9999 -9999 -9999 -9999 -9999 -9999 -9999 -9999 -9999 -9999 -9999 -9999 -9999 -9999 -9999 -9999 -9999 -9999 -9999 -9999 -9999 -9999 -9999 -9999 -9999 -9999 -9999 -9999 -9999 -9999 -9999
-9999 -9999 -9999 -9999 -9999 -9999 -9999 -9999 -9999 -9999 -9999 -9999 -9999 -9999 -9999 -9999 -9999 -9999 -9999 -9999 -9999 -9999 -9999 -9999 -9999 -9999 -9999 -9999 -9999 -9999 -9999 -9999 -9999 -9999 -9999 -9999 -9999 -9999 -9999 -9999 617.0508 614.4387 610.1433 606.632 599.8853 592.519 585.6199 579.5673 574.3994 568.2379 561.1871 553.5267 545.8961 539.4708 533.2491 526.7318 520.5847 513.9622 506.9731 500.8558 493.2914 485.6279 480.7527 478.1855 472.4499 470.8154 476.5159 485.234 489.1446 493.539 498.8083 501.6406 506.8725 512.7833 517.5801 523.4323 529.1953 536.022 543.3853 550.7965 558.6558 565.0954 565.6753 560.7612 554.4076 547.8384 540.1871 533.9136 527.0388 518.9441 510.1407 503.4047 502.3569 504.0478 504.2375 501.982 496.7722 491.0701 484.8073 479.2995 468.4144 459.2025 455.6318 461.5449 469.4636 477.6719 483.1141 489.4105 495.5637 501.3823 507.6886 514.1168 519.3678 523.7081 525.2397 520.9977 515.9357 508.9033 500.8466 494.7072 488.1349 480.7649 473.9061 467.5838 460.3577 452.8558 444.0113 436.1033 432.0449 429.6728 428.183 428.4551 432.5097 440.5435 448.4439 456.9417 466.1383 474.5942 480.8037 485.727 491.3765 495.9942 501.5819 508.2974 515.3536 521.9959 528.7998 533.9647 538.8704 544.0703 550.1678 556.2516 560.6986 566.0707 570.5353 572.5958 -9999 -9999 -9999 -9999 -9999 -9999 -9999 -9999 -9999 -9999 -9999 -9999 -9999 -9999 -9999 -9999 -9999 -9999 -9999 -9999 -9999 -9999 -9999 -9999 -9999 -9999 -9999 -9999 -9999 -9999 -9999 -9999 -9999 -9999 -9999 -9999 -9999 -9999 -9999 -9999 -9999 -9999 -9999 -9999 -9999 -9999 -9999 -9999 -9999
-9999 -9999 -9999 -9999 -9999 -9999 -9999 -9999 -9999 -9999 -9999 -9999 -9999 -9999 -9999 -9999 -9999 -9999 -9999 -9999 -9999 -9999 -9999 -9999 -9999 -9999 -9999 -9999 -9999 -9999 -9999 -9999 -9999 -9999 -9999 -9999 -9999 -9999 -9999 -9999 613.9754 610.6805 605.8594 601.9747 596.4197 589.3491 582.8698 577.0482 569.9425 563.3123 556.004 548.2659 541.6433 533.275 526.9406 521.381 516.095 509.0922 501.7945 494.631 488.6051 481.5162 476.3536 473.8726 469.7105 467.1228 471.9211 479.0816 483.6559 488.5487 492.6795 496.9879 501.8212 508.0841 514.3469 521.2896 528.7221 536.6469 543.6763 551.64 558.3867 562.6928 563.5317 558.4279 552.9575 545.8419 537.9408 530.688 523.9215 516.0988 509.2903 500.0717 492.8144 495.0691 495.9835 496.6244 493.3828 487.6922 482.2568 476.6333 470.0389 458.4962 452.6707 453.9181 464.4222 472.5032 477.7191 484.648 490.8019 498.1224 505.1214 511.971 517.9222 522.4211 521.6172 517.891 512.7955 505.9497 498.4486 492.124 485.8954 479.0016 472.4583 465.7375 459.3008 451.8874 443.2996 434.5313 429.6385 429.2049 427.7335 426.4327 429.1698 438.0425 445.6808 454.3531 463.3737 470.4306 475.1039 480.1354 485.4725 489.7145 495.6391 503.0145 509.9456 516.1712 523.4361 530.0663 536.2529 541.7286 547.0208 553.3187 559.2607 563.2064 568.4825 570.8005 -9999 -9999 -9999 -9999 -9999 -9999 -9999 -9999 -9999 -9999 -9999 -9999 -9999 -9999 -9999 -9999 -9999 -9999 -9999 -9999 -9999 -9999 -9999 -9999 -9999 -9999 -9999 -9999 -9999 -9999 -9999 -9999 -9999 -9999 -9999 -9999 -9999 -9999 -9999 -9999 -9999 -9999 -9999 -9999 -9999 -9999 -9999 -9999 -9999
-9999 -9999 -9999 -9999 -9999 -9999 -9999 -9999 -9999 -9999 -9999 -9999 -9999 -9999 -9999 -9999 -9999 -9999 -9999 -9999 -9999 -9999 -9999 -9999 -9999 -9999 -9999 -9999 -9999 -9999 -9999 -9999 -9999 -9999 -9999 -9999 -9999 -9999 -9999 -9999 612.0239 607.8977 602.7192 597.7601 593.0509 587.1545 579.9354 572.848 565.3118 558.6801 551.6552 543.732 537.024 527.9471 521.903 515.3871 510.6985 504.3998 498.2954 490.8255 484.0956 477.8784 474.8045 472.1588 467.5853 462.5805 466.9628 473.2134 478.5291 482.6821 487.507 492.918 499.8446 507.1186 513.8425 521.6248 529.4734 535.8605 542.5493 548.3916 552.8813 558.6207 560.5394 556.1533 549.6291 543.5491 536.6599 529.2814 522.2924 515.0045 507.9005 500.0137 490.0498 485.7682 487.7051 488.2721 489.4883 484.946 479.1441 473.6287 468.4913 459.0074 446.1297 450.595 460.5193 467.8787 473.4809 479.9731 487.3356 495.0806 503.4366 510.495 515.2065 517.8918 517.9992 512.5303 507.1285 502.2045 495.3038 489.4829 484.4689 477.7733 470.7339 464.6341 458.2935 451.9894 442.8378 433.6923 427.9263 426.5196 425.4353 425.7629 426.5112 435.2079 442.8713 451.4393 458.2554 462.6917 466.8401 472.0902 478.0194 483.566 490.5367 497.3787 503.4465 510.6665 517.6891 524.4191 531.2283 537.1232 543.3937 549.1475 556.6799 561.6808 565.1868 567.6557 -9999 -9999 -9999 -9999 -9999 -9999 -9999 -9999 -9999 -9999 -9999 -9999 -9999 -9999 -9999 -9999 -9999 -9999 -9999 -9999 -9999 -9999 -9999 -9999 -9999 -9999 -9999 -9999 -9999 -9999 -9999 -9999 -9999 -9999 -9999 -9999 -9999 -9999 -9999 -9999 -9999 -9999 -9999 -9999 -9999 -9999 -9999 -9999 -9999
-9999 -9999 -9999 -9999 -9999 -9999 -9999 -9999 -9999 -9999 -9999 -9999 -9999 -9999 -9999 -9999 -9999 -9999 -9999 -9999 -9999 -9999 -9999 -9999 -9999 -9999 -9999 -9999 -9999 -9999 -9999 -9999 -9999 -9999 -9999 -9999 -9999 -9999 -9999 -9999 609.1672 605.3397 600.1832 595.4557 589.8901 583.5731 577.0626 569.3154 561.6215 554.8808 548.1668 542.5333 537.0889 531.7609 526.5016 518.4618 510.028 503.3612 496.2578 491.4732 489.409 483.7252 478.8378 473.4474 466.8629 459.7017 460.8705 464.3376 470.7682 476.2736 483.1735 491.3132 500.0564 509.1631 516.7709 523.7158 530.5997 535.9474 538.9984 542.4952 547.4871 554.3573 558.7167 554.1699 547.801 541.4193 534.386 527.6035 520.2936 513.2291 506.2241 499.0208 490.7623 481.1481 476.8901 479.0664 482.1616 480.6018 475.6709 470.615 465.774 457.4195 446.0603 444.9783 452.9038 463.264 470.6066 478.2526 485.6927 493.158 500.189 505.9254 511.5016 514.9581 514.2098 508.6937 503.0922 497.7262 492.3564 487.3752 480.5766 474.534 468.5851 462.5309 456.1317 449.6425 443.4497 433.4012 425.2661 424.5552 422.5435 424.6108 425.0078 432.1835 439.5369 447.2071 451.2739 455.4893 459.7618 465.4121 471.8449 478.0453 484.7555 491.2104 498.4311 505.5961 512.7635 520.1717 526.84 533.5311 540.3533 546.8896 554.3505 560.3512 562.5701 565.4886 -9999 -9999 -9999 -9999 -9999 -9999 -9999 -9999 -9999 -9999 -9999 -9999 -9999 -9999 -9999 -9999 -9999 -9999 -9999 -9999 -9999 -9999 -9999 -9999 -9999 -9999 -9999 -9999 -9999 -9999 -9999 -9999 -9999 -9999 -9999 -9999 -9999 -9999 -9999 -9999 -9999 -9999 -9999 -9999 -9999 -9999 -9999 -9999 -9999
-9999 -9999 -9999 -9999 -9999 -9999 -9999 -9999 -9999 -9999 -9999 -9999 -9999 -9999 -9999 -9999 -9999 -9999 -9999 -9999 -9999 -9999 -9999 -9999 -9999 -9999 -9999 -9999 -9999 -9999 -9999 -9999 -9999 -9999 -9999 -9999 -9999 -9999 -9999 609.6572 606.6755 602.175 597.4011 592.1494 587.1134 581.5782 575.5958 569.2095 562.1472 555.8082 550.4353 544.4612 540.2397 535.894 530.2111 521.983 514.6533 508.4636 502.8743 497.9746 492.2993 487.8621 483.2871 477.9958 470.4801 460.5391 453.643 458.452 465.4075 473.1685 481.9696 490.8217 502.3302 510.4524 519.0134 527.9136 532.6906 531.6025 532.6495 537.514 542.6224 549.6916 555.1345 552.8661 546.2435 539.6415 532.4696 525.4996 517.6647 510.6665 503.6134 496.8194 490.4262 481.8698 472.6564 469.1809 474.4684 473.6554 472.0461 467.6783 462.3115 453.3382 441.5439 442.8622 453.7611 460.9887 468.707 475.0026 482.567 488.6394 494.4961 500.6729 506.7552 510.8441 510.8661 505.1245 499.4224 494.0229 488.8154 483.2886 477.0989 471.6589 465.7123 459.4662 453.7161 447.691 440.1221 431.6334 424.6504 423.0152 421.1513 422.289 424.2092 429.3405 436.1932 440.5983 444.2498 449.1952 455.1312 459.9706 466.3646 472.331 478.9642 486.9066 495.4471 504.0028 511.5161 519.2565 525.0348 531.764 539.8785 545.1607 551.6857 558.0614 560.8365 563.7611 -9999 -9999 -9999 -9999 -9999 -9999 -9999 -9999 -9999 -9999 -9999 -9999 -9999 -9999 -9999 -9999 -9999 -9999 -9999 -9999 -9999 -9999 -9999 -9999 -9999 -9999 -9999 -9999 -9999 -9999 -9999 -9999 -9999 -9999 -9999 -9999 -9999 -9999 -9999 -9999 -9999 -9999 -9999 -9999 -9999 -9999 -9999 -9999 -9999
-9999 -9999 -9999 -9999 -9999 -9999 -9999 -9999 -9999 -9999 -9999 -9999 -9999 -9999 -9999 -9999 -9999 -9999 -9999 -9999 -9999 -9999 -9999 -9999 -9999 -9999 -9999 -9999 -9999 -9999 -9999 -9999 -9999 -9999 -9999 -9999 -9999 -9999 -9999 -9999 604.3689 600.0803 594.5917 589.6493 584.4929 579.056 573.0575 566.6819 559.8741 551.704 546.3975 542.2263 536.112 531.7876 527.1951 521.288 516.4371 512.5593 508.0871 501.6764 495.7382 490.7387 485.919 480.6833 473.5129 463.77 451.4789 453.2711 461.6798 470.1761 479.82 489.1217 498.127 505.7699 513.1758 521.7795 525.5621 524.4572 525.4752 531.6474 539.0823 545.5592 549.5613 550.5694 545.15 538.4346 531.3327 524.8771 517.5367 510.489 504.2398 497.6637 490.5375 483.2733 475.1687 466.1345 463.437 465.8152 465.1012 463.6016 459.7878 449.7781 437.5191 443.1464 452.3766 457.4195 464.3026 470.4962 476.644 483.5401 489.9904 497.1852 503.2355 507.601 506.9114 501.604 496.0757 490.6853 485.0107 479.8223 474.3663 468.7466 462.6559 457.0407 451.1985 444.1812 436.0027 428.2402 423.134 421.1079 419.5633 421.3167 422.2006 426.8427 431.5336 435.672 441.8617 447.6384 454.5696 460.5497 465.4296 470.5739 478.3943 485.7971 494.0244 502.3432 509.8672 518.6652 525.2878 532.2684 538.5542 543.6725 548.9509 554.2552 558.5292 563.214 -9999 -9999 -9999 -9999 -9999 -9999 -9999 -9999 -9999 -9999 -9999 -9999 -9999 -9999 -9999 -9999 -9999 -9999 -9999 -9999 -9999 -9999 -9999 -9999 -9999 -9999 -9999 -9999 -9999 -9999 -9999 -9999 -9999 -9999 -9999 -9999 -9999 -9999 -9999 -9999 -9999 -9999 -9999 -9999 -9999 -9999 -9999 -9999 -9999
-9999 -9999 -9999 -9999 -9999 -9999 -9999 -9999 -9999 -9999 -9999 -9999 -9999 -9999 -9999 -9999 -9999 -9999 -9999 -9999 -9999 -9999 -9999 -9999 -9999 -9999 -9999 -9999 -9999 -9999 -9999 -9999 -9999 -9999 -9999 -9999 -9999 -9999 -9999 -9999 603.8279 599.1141 594.1794 588.6099 582.6862 576.8835 570.9926 564.6603 557.2742 548.9532 542.0701 536.3665 531.6985 526.2646 521.1051 515.81 512.3116 509.618 506.2957 502.4156 496.8918 492.3648 486.5164 479.0351 469.3806 459.0242 450.723 448.1696 456.8427 467.1754 477.6102 486.185 493.0765 500.5037 508.2525 513.3815 516.4173 516.4539 519.2687 526.8415 534.5453 539.6431 543.8097 548.2514 544.5801 538.0162 530.4488 524.1059 516.5331 510.966 505.4605 498.2825 492.5111 485.3041 477.5599 467.9175 458.1266 454.0689 457.7944 458.3499 456.6735 447.9851 434.1876 441.2491 448.0377 452.2546 459.7596 465.9547 472.9147 479.9937 487.3508 494.493 501.3152 505.3447 503.4694 498.0554 493.3447 487.5131 481.7867 476.7339 470.7164 465.326 459.8952 453.7649 447.6567 440.4756 432.2384 424.7548 420.8998 419.6875 419.2532 419.2852 420.1897 425.9763 431.4627 438.406 446.5892 452.8589 459.5104 465.4334 469.978 475.0666 481.168 486.6254 493.6487 500.4001 508.4628 514.875 522.2024 529.5413 536.3802 542.2682 547.2639 552.3129 556.9473 560.803 -9999 -9999 -9999 -9999 -9999 -9999 -9999 -9999 -9999 -9999 -9999 -9999 -9999 -9999 -9999 -9999 -9999 -9999 -9999 -9999 -9999 -9999 -9999 -9999 -9999 -9999 -9999 -9999 -9999 -9999 -9999 -9999 -9999 -9999 -9999 -9999 -9999 -9999 -9999 -9999 -9999 -9999 -9999 -9999 -9999 -9999 -9999 -9999 -9999
-9999 -9999 -9999 -9999 -9999 -9999 -9999 -9999 -9999 -9999 -9999 -9999 -9999 -9999 -9999 -9999 -9999 -9999 -9999 -9999 -9999 -9999 -9999 -9999 -9999 -9999 -9999 -9999 -9999 -9999 -9999 -9999 -9999 -9999 -9999 -9999 -9999 -9999 -9999 -9999 603.3981 599.0212 593.6026 588.1635 582.5566 576.1322 570.8615 564.5902 557.2803 550.3232 542.9525 535.8788 529.084 522.3403 516.383 510.1826 505.4125 503.0526 500.2812 497.7521 493.9894 490.1443 485.3879 477.4966 468.3709 456.614 447.1957 446.0237 458.4367 467.6508 475.4682 481.7951 487.4971 494.9434 501.8273 506.522 507.2276 508.6556 512.9335 520.1146 527.416 533.1577 539.0784 544.5359 542.9204 536.656 529.5877 522.0782 514.251 507.5019 502.0788 497.3544 492.7351 486.9538 480.3183 471.6239 463.4187 455.3651 449.3903 452.1921 451.6336 445.5818 432.6971 437.6067 443.2569 447.6217 455.3666 462.1446 469.6701 477.5911 484.3028 491.0755 497.7803 501.3693 499.7767 494.4816 489.2162 484.187 478.6671 473.7026 467.8177 462.8411 457.0682 450.8175 444.9409 437.0664 429.2323 421.5658 417.371 414.8694 417.2521 417.2453 420.5341 426.7893 434.8559 443.7583 449.8276 455.8299 462.5836 468.3671 474.0661 479.7963 485.8512 491.714 496.7791 503.3742 509.5639 514.7043 520.2258 526.8499 533.2225 539.4351 545.5242 550.4886 554.8297 -9999 -9999 -9999 -9999 -9999 -9999 -9999 -9999 -9999 -9999 -9999 -9999 -9999 -9999 -9999 -9999 -9999 -9999 -9999 -9999 -9999 -9999 -9999 -9999 -9999 -9999 -9999 -9999 -9999 -9999 -9999 -9999 -9999 -9999 -9999 -9999 -9999 -9999 -9999 -9999 -9999 -9999 -9999 -9999 -9999 -9999 -9999 -9999 -9999 -9999
-9999 -9999 -9999 -9999 -9999 -9999 -9999 -9999 -9999 -9999 -9999 -9999 -9999 -9999 -9999 -9999 -9999 -9999 -9999 -9999 -9999 -9999 -9999 -9999 -9999 -9999 -9999 -9999 -9999 -9999 -9999 -9999 -9999 -9999 -9999 -9999 -9999 -9999 -9999 -9999 603.0278 599.0608 594.2076 589.0588 582.6899 576.6839 570.1726 564.2999 557.5615 550.8551 543.6161 536.7574 530.2926 523.2776 516.498 509.9975 503.2698 498.156 493.5398 491.1082 489.0608 485.6211 481.2617 475.4499 464.7385 454.9628 444.2597 442.7616 455.4474 463.4286 469.8317 476.788 482.6074 489.5995 495.8677 497.9785 498.8578 502.1374 508.0345 514.9985 521.8915 528.5491 534.9842 540.7366 540.1902 535.3279 528.7914 520.9467 513.4371 505.065 496.8903 492.0729 488.5129 484.027 478.9224 473.3499 466.7189 456.9653 446.9892 444.6445 446.5533 444.0486 432.3413 431.6829 437.7035 444.0364 451.2663 458.0184 465.7054 472.8035 480.5378 487.7729 493.8354 498.0844 496.3302 491.5342 484.8317 480.0974 475.1253 469.7943 464.881 460.3112 453.6598 448.2488 441.9646 434.3865 426.7284 418.7876 414.9288 413.2966 415.5849 416.2722 420.3185 427.1185 435.1653 443.1099 448.946 454.8401 460.0179 465.9767 472.0323 479.0085 485.3246 492.7816 499.1717 505.696 512.5715 517.7104 522.7373 528.1719 533.1554 539.032 544.3728 549.1475 552.1742 -9999 -9999 -9999 -9999 -9999 -9999 -9999 -9999 -9999 -9999 -9999 -9999 -9999 -9999 -9999 -9999 -9999 -9999 -9999 -9999 -9999 -9999 -9999 -9999 -9999 -9999 -9999 -9999 -9999 -9999 -9999 -9999 -9999 -9999 -9999 -9999 -9999 -9999 -9999 -9999 -9999 -9999 -9999 -9999 -9999 -9999 -9999 -9999 -9999 -9999
-9999 -9999 -9999 -9999 -9999 -9999 -9999 -9999 -9999 -9999 -9999 -9999 -9999 -9999 -9999 -9999 -9999 -9999 -9999 -9999 -9999 -9999 -9999 -9999 -9999 -9999 -9999 -9999 -9999 -9999 -9999 -9999 -9999 -9999 -9999 -9999 -9999 -9999 -9999 -9999 603.4019 599.3694 594.949 589.2546 583.5198 577.9534 571.4665 565.8589 559.5237 552.6252 545.9958 539.2925 533.0685 526.0063 518.5784 511.7363 504.3655 496.6815 490.1215 484.8972 482.1563 478.363 474.5637 468.7496 461.0717 452.1998 442.8363 439.1642 450.4159 458.2226 463.1543 470.3514 478.0232 484.2098 488.3536 489.8753 491.4763 496.5886 502.7501 510.5948 517.9482 524.634 529.9779 534.7739 537.1514 533.5173 527.1364 519.5629 511.3576 503.2469 493.6617 487.4697 483.3793 478.8507 475.0834 471.2772 466.5178 458.6912 450.1119 440.596 440.9557 441.6148 437.7721 427.005 430.8699 440.7888 447.3214 454.5086 461.5007 469.4774 476.0968 483.2269 489.441 495.3419 493.2304 487.7943 482.5579 476.8025 471.7237 466.994 461.3331 456.0814 450.5096 444.8968 439.2572 432.8038 424.5056 417.704 413.3759 411.6896 413.1663 414.7642 419.9588 426.765 433.2793 437.9587 444.6841 450.5066 455.3118 461.5175 468.166 474.649 481.7615 489.1431 495.8792 503.4519 511.0201 517.3088 523.5253 529.6334 534.9423 540.8821 545.5623 549.162 -9999 -9999 -9999 -9999 -9999 -9999 -9999 -9999 -9999 -9999 -9999 -9999 -9999 -9999 -9999 -9999 -9999 -9999 -9999 -9999 -9999 -9999 -9999 -9999 -9999 -9999 -9999 -9999 -9999 -9999 -9999 -9999 -9999 -9999 -9999 -9999 -9999 -9999 -9999 -9999 -9999 -9999 -9999 -9999 -9999 -9999 -9999 -9999 -9999 -9999 -9999
-9999 -9999 -9999 -9999 -9999 -9999 -9999 -9999 -9999 -9999 -9999 -9999 -9999 -9999 -9999 -9999 -9999 -9999 -9999 -9999 -9999 -9999 -9999 -9999 -9999 -9999 -9999 -9999 -9999 -9999 -9999 -9999 -9999 -9999 -9999 -9999 -9999 -9999 -9999 -9999 603.8728 599.595 595.884 590.4967 585.8713 580.042 573.2419 567.501 560.9211 553.8102 546.9011 539.893 532.9215 525.7716 518.733 512.0167 504.9233 497.7841 491.3612 485.6241 478.9025 473.1959 468.6064 465.073 457.3326 448.677 440.519 436.8074 444.9897 452.2661 458.3186 464.5609 472.3768 476.5609 480.7344 482.4527 485.8436 493.9597 499.6724 506.621 514.2296 519.6132 524.1836 528.4073 531.9926 531.8684 524.493 516.7137 508.5794 501.1689 493.1336 486.3054 479.9206 474.3823 470.3178 466.6244 462.9203 458.948 452.9541 444.0677 434.8483 437.6776 434.8033 426.0548 427.2161 436.9689 444.7383 450.9295 458.343 464.9069 472.9124 479.929 486.55 492.9728 490.6419 485.4055 479.9465 473.6241 468.8853 462.7177 457.6214 452.3293 446.9763 441.9828 436.882 430.1642 422.7561 416.02 411.8397 410.4574 412.9186 416.2257 419.8773 423.7993 427.5902 432.5691 438.9806 444.7482 450.8731 456.8701 463.6671 470.6981 478.5116 486.505 494.461 502.2456 510.162 516.668 522.1895 529.6418 536.4091 541.7051 546.4111 549.082 -9999 -9999 -9999 -9999 -9999 -9999 -9999 -9999 -9999 -9999 -9999 -9999 -9999 -9999 -9999 -9999 -9999 -9999 -9999 -9999 -9999 -9999 -9999 -9999 -9999 -9999 -9999 -9999 -9999 -9999 -9999 -9999 -9999 -9999 -9999 -9999 -9999 -9999 -9999 -9999 -9999 -9999 -9999 -9999 -9999 -9999 -9999 -9999 -9999 -9999 -9999
-9999 -9999 -9999 -9999 -9999 -9999 -9999 -9999 -9999 -9999 -9999 -9999 -9999 -9999 -9999 -9999 -9999 -9999 -9999 -9999 -9999 -9999 -9999 -9999 -9999 -9999 -9999 -9999 -9999 -9999 -9999 -9999 -9999 -9999 -9999 -9999 -9999 -9999 -9999 -9999 604.4207 600.8225 597.1779 592.2356 587.2818 580.9526 574.5046 567.1635 561.0332 554.0114 546.8737 539.7719 533.2545 527.2369 520.9131 514.2982 506.7186 501.505 495.4593 489.0234 482.4702 475.4514 468.5934 462.9958 455.2318 448.9811 441.1538 433.1345 438.2544 445.8622 452.4596 459.3709 466.4469 471.1865 473.1342 476.4352 482.8893 490.0155 497.1837 504.7976 511.0132 514.7424 517.3256 522.0332 527.6005 528.5369 522.5034 514.8705 506.9083 498.8791 491.3605 484.1321 476.8009 470.375 463.9742 459.6041 456.9569 452.4002 449.5754 445.0034 436.6557 431.8041 432.4967 425.4772 424.0759 434.3073 440.9374 448.5985 455.6425 463.6214 472.1421 478.9757 484.8416 490.075 488.2919 482.852 477.4646 471.3587 466.0735 460.5482 454.376 449.5313 444.4426 438.8114 433.2153 426.3763 419.6669 413.3721 410.3888 409.8333 415.3632 418.4233 417.4975 418.3868 422.4985 427.2679 434.5991 441.1751 448.3852 455.0565 462.9348 470.4725 477.899 485.9899 494.4824 502.1725 509.4671 516.716 521.2347 527.6896 534.7023 540.0096 544.4071 -9999 -9999 -9999 -9999 -9999 -9999 -9999 -9999 -9999 -9999 -9999 -9999 -9999 -9999 -9999 -9999 -9999 -9999 -9999 -9999 -9999 -9999 -9999 -9999 -9999 -9999 -9999 -9999 -9999 -9999 -9999 -9999 -9999 -9999 -9999 -9999 -9999 -9999 -9999 -9999 -9999 -9999 -9999 -9999 -9999 -9999 -9999 -9999 -9999 -9999 -9999 -9999
-9999 -9999 -9999 -9999 -9999 -9999 -9999 -9999 -9999 -9999 -9999 -9999 -9999 -9999 -9999 -9999 -9999 -9999 -9999 -9999 -9999 -9999 -9999 -9999 -9999 -9999 -9999 -9999 -9999 -9999 -9999 -9999 -9999 -9999 -9999 -9999 -9999 -9999 -9999 -9999 -9999 601.2767 597.5139 592.7971 588.0118 582.693 575.6887 569.2483 562.199 554.5943 548.1021 542.3047 537.5933 531.3723 525.0264 517.9222 512.1082 505.0086 498.713 492.5561 485.8024 479.0945 473.4527 466.7052 459.5813 452.295 444.5363 435.1729 430.3929 437.7507 445.4629 453.5523 460.0659 463.69 466.8721 473.2721 481.8354 489.0905 496.2997 501.7907 505.078 507.2703 510.9218 516.111 522.6078 525.7952 519.5164 511.9192 505.3371 497.2949 490.8774 483.5378 476.4672 468.8258 462.3504 454.5277 450.2391 446.5374 443.7743 442.7083 438.8465 429.7954 429.7642 423.7101 422.6951 431.7523 439.3204 446.5846 455.583 462.6963 470.4466 476.6615 482.6089 487.4285 486.6475 481.7501 476.6737 470.2325 463.5916 458.0839 452.1823 446.6006 440.5869 435.1752 428.337 421.8401 414.4998 410.0787 408.9837 408.4892 413.3035 413.6334 414.6857 418.9583 423.5966 429.5188 436.0286 442.2663 448.5902 456.2597 463.834 471.1187 478.1817 485.1418 492.8121 500.3048 507.9286 514.1396 519.0584 524.5113 530.7368 535.7424 539.2506 -9999 -9999 -9999 -9999 -9999 -9999 -9999 -9999 -9999 -9999 -9999 -9999 -9999 -9999 -9999 -9999 -9999 -9999 -9999 -9999 -9999 -9999 -9999 -9999 -9999 -9999 -9999 -9999 -9999 -9999 -9999 -9999 -9999 -9999 -9999 -9999 -9999 -9999 -9999 -9999 -9999 -9999 -9999 -9999 -9999 -9999 -9999 -9999 -9999 -9999 -9999 -9999
-9999 -9999 -9999 -9999 -9999 -9999 -9999 -9999 -9999 -9999 -9999 -9999 -9999 -9999 -9999 -9999 -9999 -9999 -9999 -9999 -9999 -9999 -9999 -9999 -9999 -9999 -9999 -9999 -9999 -9999 -9999 -9999 -9999 -9999 -9999 -9999 -9999 -9999 -9999 -9999 -9999 601.2318 597.9849 594.0072 589.7781 584.6963 578.6453 571.6555 563.8892 556.7195 551.8244 546.7 540.9651 535.0917 528.0508 520.8872 515.5494 508.7097 502.8506 496.1755 490.4941 483.3054 477.4974 469.5338 462.5226 454.8987 445.5506 436.946 428.0002 430.4835 439.9407 448.3075 453.3664 456.9966 463.0796 471.0318 478.7776 487.1634 492.1149 495.0135 498.2939 501.1141 505.5184 512.1752 518.6088 523.2113 518.3551 511.1306 504.3678 497.8596 490.3043 484.2022 476.724 469.123 461.3788 453.425 447.3961 442.8683 438.6301 438.1919 437.2257 432.5584 424.1383 420.637 421.4911 430.0637 438.3817 446.0733 452.7225 460.3196 468.0334 474.1774 480.0653 485.1136 483.438 478.7829 473.9282 468.089 461.6028 455.6219 448.9156 443.5914 437.244 430.8721 423.8625 417.8092 411.7817 408.144 407.6601 407.8773 409.7228 412.5331 416.9572 420.9684 425.4604 430.3426 437.052 442.3852 447.8899 453.9767 461.8939 467.8497 475.5871 482.3003 490.1634 498.0325 504.918 511.3134 516.3838 520.9733 526.1846 530.8557 533.9288 -9999 -9999 -9999 -9999 -9999 -9999 -9999 -9999 -9999 -9999 -9999 -9999 -9999 -9999 -9999 -9999 -9999 -9999 -9999 -9999 -9999 -9999 -9999 -9999 -9999 -9999 -9999 -9999 -9999 -9999 -9999 -9999 -9999 -9999 -9999 -9999 -9999 -9999 -9999 -9999 -9999 -9999 -9999 -9999 -9999 -9999 -9999 -9999 -9999 -9999 -9999 -9999
-9999 -9999 -9999 -9999 -9999 -9999 -9999 -9999 -9999 -9999 -9999 -9999 -9999 -9999 -9999 -9999 -9999 -9999 -9999 -9999 -9999 -9999 -9999 -9999 -9999 -9999 -9999 -9999 -9999 -9999 -9999 -9999 -9999 -9999 -9999 -9999 -9999 -9999 -9999 -9999 -9999 600.994 597.9041 593.0615 589.5449 585.3387 579.4218 572.5737 565.6989 560.3885 555.7784 550.1168 543.7747 537.6992 530.9944 524.8831 519.2146 513.9904 507.3853 501.3899 494.2972 487.3066 478.5634 470.4024 461.4101 453.8937 445.7891 436.962 427.0286 425.4581 432.8351 441.0197 446.1289 452.612 459.9044 468.6224 477.0951 481.395 484.8309 488.1364 491.1616 495.2863 501.1499 508.2776 514.9039 519.9896 519.015 512.4953 506.6447 500.1463 493.2304 485.7415 478.1017 470.8672 464.2127 457.9338 450.9105 444.355 437.0741 431.7492 432.1195 430.1536 425.087 417.8648 418.4066 427.8325 436.6443 443.9313 450.9486 458.2828 465.0646 471.6559 478.075 482.0305 480.7656 475.3127 469.9772 464.8505 458.7651 453.4967 447.2864 441.4921 433.946 426.7947 420.1081 413.7439 409.0508 406.2123 405.5273 406.2298 409.3799 412.7251 413.9474 416.337 419.881 424.0522 430.5864 437.7469 443.4855 449.9427 457.2755 464.2775 472.0278 479.8718 487.1321 494.4115 500.6721 507.22 512.6965 517.5801 522.9827 526.43 528.863 -9999 -9999 -9999 -9999 -9999 -9999 -9999 -9999 -9999 -9999 -9999 -9999 -9999 -9999 -9999 -9999 -9999 -9999 -9999 -9999 -9999 -9999 -9999 -9999 -9999 -9999 -9999 -9999 -9999 -9999 -9999 -9999 -9999 -9999 -9999 -9999 -9999 -9999 -9999 -9999 -9999 -9999 -9999 -9999 -9999 -9999 -9999 -9999 -9999 -9999 -9999 -9999
-9999 -9999 -9999 -9999 -9999 -9999 -9999 -9999 -9999 -9999 -9999 -9999 -9999 -9999 -9999 -9999 -9999 -9999 -9999 -9999 -9999 -9999 -9999 -9999 -9999 -9999 -9999 -9999 -9999 -9999 -9999 -9999 -9999 -9999 -9999 -9999 -9999 -9999 -9999 -9999 -9999 597.9254 593.899 589.9663 585.7601 581.4738 576.4073 571.4147 566.2834 562.1343 558.2869 552.5376 546.9606 540.8082 536.4023 529.369 522.5751 516.0378 508.9352 501.6391 494.3338 486.4235 478.3341 469.9833 461.4497 453.7093 445.9156 436.9811 428.1213 423.39 427.4492 435.2445 442.1589 449.5457 457.8561 467.0024 472.3188 474.6696 477.566 481.4804 484.3752 490.5261 496.6975 504.1918 510.3167 516.7511 518.6751 514.1039 507.9523 501.3823 495.5568 487.8956 481.1855 474.9569 468.2597 460.6801 453.5394 446.2592 439.6763 431.6722 427.8417 426.7352 423.2887 417.7246 414.5333 425.9085 434.2912 441.7634 449.215 455.4771 462.8601 469.1687 474.6605 477.172 475.9025 470.5015 465.092 459.9462 453.9661 449.5907 443.2356 436.9887 430.3098 422.7126 416.8971 410.9276 407.3256 405.0426 405.5555 405.0769 408.323 409.2595 410.2151 413.0741 417.7932 421.9583 426.6118 433.1498 439.7487 446.5015 453.1904 459.8685 467.2546 474.4715 481.0559 489.7702 496.9558 503.461 510.1956 516.6071 521.6462 522.9149 524.941 -9999 -9999 -9999 -9999 -9999 -9999 -9999 -9999 -9999 -9999 -9999 -9999 -9999 -9999 -9999 -9999 -9999 -9999 -9999 -9999 -9999 -9999 -9999 -9999 -9999 -9999 -9999 -9999 -9999 -9999 -9999 -9999 -9999 -9999 -9999 -9999 -9999 -9999 -9999 -9999 -9999 -9999 -9999 -9999 -9999 -9999 -9999 -9999 -9999 -9999 -9999 -9999
-9999 -9999 -9999 -9999 -9999 -9999 -9999 -9999 -9999 -9999 -9999 -9999 -9999 -9999 -9999 -9999 -9999 -9999 -9999 -9999 -9999 -9999 -9999 -9999 -9999 -9999 -9999 -9999 -9999 -9999 -9999 -9999 -9999 -9999 -9999 -9999 -9999 -9999 -9999 -9999 -9999 595.2256 590.6437 586.4291 581.4609 576.3074 572.0418 567.5109 562.3682 558.8508 556.433 553.4353 549.6497 543.2557 537.303 530.6766 523.4224 515.8199 508.1169 500.1677 493.1672 485.6508 478.9071 470.311 462.3877 454.677 445.9818 437.2943 427.5049 421.3327 422.2874 431.5381 439.6588 448.5467 457.0087 462.1149 464.407 466.8172 471.374 474.7298 478.6953 485.692 493.9467 500.5517 507.38 513.4493 515.3467 513.3998 508.5116 501.284 496.3782 489.0836 482.8337 475.8355 468.5805 461.9282 455.2638 448.2389 440.388 433.0202 424.623 422.8612 420.4922 415.1894 413.4505 424.0484 431.1647 438.7772 445.8203 452.6486 460.0026 466.3844 470.9488 471.4243 469.2998 464.724 458.9747 455.2607 449.2348 444.6948 438.9691 433.5978 427.767 420.6568 413.7942 408.1013 405.2964 404.4543 403.8188 403.7831 406.2771 407.5527 411.4663 416.2821 420.7604 425.8765 430.3265 433.9422 438.5844 443.7233 449.2501 455.5632 462.5043 469.9445 477.2078 486.3115 494.3574 500.9518 509.0876 514.9436 519.4211 521.7361 522.274 -9999 -9999 -9999 -9999 -9999 -9999 -9999 -9999 -9999 -9999 -9999 -9999 -9999 -9999 -9999 -9999 -9999 -9999 -9999 -9999 -9999 -9999 -9999 -9999 -9999 -9999 -9999 -9999 -9999 -9999 -9999 -9999 -9999 -9999 -9999 -9999 -9999 -9999 -9999 -9999 -9999 -9999 -9999 -9999 -9999 -9999 -9999 -9999 -9999 -9999 -9999 -9999
-9999 -9999 -9999 -9999 -9999 -9999 -9999 -9999 -9999 -9999 -9999 -9999 -9999 -9999 -9999 -9999 -9999 -9999 -9999 -9999 -9999 -9999 -9999 -9999 -9999 -9999 -9999 -9999 -9999 -9999 -9999 -9999 -9999 -9999 -9999 -9999 -9999 -9999 -9999 -9999 -9999 593.0364 587.9044 582.6382 577.2965 571.0733 566.1127 561.5559 556.4299 552.6459 551.4099 550.1229 549.4462 544.3385 537.5963 530.1432 522.9583 515.2073 507.8166 499.9315 492.3701 484.5025 477.7214 470.7042 462.3633 454.5482 446.7134 438.8815 429.3192 420.6172 417.4548 427.3342 436.7228 445.1787 451.0857 454.8233 457.2739 460.2259 464.8543 468.6178 475.0605 483.1812 491.0572 497.6332 504.3587 509.141 511.9368 511.0947 506.2073 501.1659 494.5769 488.1334 480.4707 474.4677 466.8911 460.9391 454.0888 447.1614 440.2646 432.5546 424.6093 419.5968 417.8358 413.2471 413.2806 420.9418 428.1777 436.1376 443.0329 450.3908 457.0598 462.8388 465.5561 464.8993 463.4629 458.8391 453.9867 449.5732 444.5028 439.4378 434.9229 429.3337 424.306 417.5844 411.1386 406.0439 404.225 403.7152 401.1275 403.0675 406.0728 410.8407 416.5877 422.3195 427.5475 432.2574 436.4012 440.4147 444.3778 447.8701 452.09 457.3974 462.6247 469.3516 476.0275 483.4837 491.2081 498.5042 505.3843 512.0831 515.9205 520.859 -9999 -9999 -9999 -9999 -9999 -9999 -9999 -9999 -9999 -9999 -9999 -9999 -9999 -9999 -9999 -9999 -9999 -9999 -9999 -9999 -9999 -9999 -9999 -9999 -9999 -9999 -9999 -9999 -9999 -9999 -9999 -9999 -9999 -9999 -9999 -9999 -9999 -9999 -9999 -9999 -9999 -9999 -9999 -9999 -9999 -9999 -9999 -9999 -9999 -9999 -9999 -9999 -9999
-9999 -9999 -9999 -9999 -9999 -9999 -9999 -9999 -9999 -9999 -9999 -9999 -9999 -9999 -9999 -9999 -9999 -9999 -9999 -9999 -9999 -9999 -9999 -9999 -9999 -9999 -9999 -9999 -9999 -9999 -9999 -9999 -9999 -9999 -9999 -9999 -9999 -9999 -9999 -9999 -9999 589.9587 585.0598 578.9554 573.3395 566.8434 560.7847 555.4843 550.8757 546.5468 544.3583 544.6929 545.778 544.8307 537.7441 530.9578 524.0084 515.733 508.5695 500.6561 492.9264 485.2896 477.7534 470.0488 463.0575 455.3819 448.5345 440.3621 432.3779 421.799 415.0065 421.9796 433.2983 439.7647 445.7753 447.723 450.2757 454.3684 459.2376 466.363 473.9069 481.8492 488.9144 496.9315 502.11 506.7178 509.8527 507.7747 503.4542 497.7399 491.9457 485.916 478.5627 471.0562 464.7804 457.0819 450.9897 444.7855 438.5013 431.798 424.2519 417.4914 415.0431 410.8948 410.8628 417.6141 425.7622 433.7213 441.3047 447.7215 453.1683 459.0562 460.565 457.9696 456.3191 453.6598 449.2706 443.9366 438.3496 434.1708 429.4929 425.0474 419.7225 413.1534 407.3987 403.0325 402.7559 399.7193 401.1473 403.402 407.4079 414.3291 421.098 428.1838 434.4718 439.9369 443.8894 447.9554 450.9501 455.1426 458.5274 462.9798 467.1876 472.9902 478.6838 484.8012 492.2612 499.4201 506.698 511.4483 516.9058 520.5649 -9999 -9999 -9999 -9999 -9999 -9999 -9999 -9999 -9999 -9999 -9999 -9999 -9999 -9999 -9999 -9999 -9999 -9999 -9999 -9999 -9999 -9999 -9999 -9999 -9999 -9999 -9999 -9999 -9999 -9999 -9999 -9999 -9999 -9999 -9999 -9999 -9999 -9999 -9999 -9999 -9999 -9999 -9999 -9999 -9999 -9999 -9999 -9999 -9999 -9999 -9999 -9999 -9999
-9999 -9999 -9999 -9999 -9999 -9999 -9999 -9999 -9999 -9999 -9999 -9999 -9999 -9999 -9999 -9999 -9999 -9999 -9999 -9999 -9999 -9999 -9999 -9999 -9999 -9999 -9999 -9999 -9999 -9999 -9999 -9999 -9999 -9999 -9999 -9999 -9999 -9999 -9999 -9999 590.4441 587.2307 582.6763 575.6864 569.7299 563.0738 557.0281 551.3519 545.3832 540.1719 537.412 538.2654 540.6177 542.1325 535.7805 530.1021 523.6655 516.4448 508.7897 501.0325 493.4057 486.0493 477.9637 472.1382 464.6699 458.1906 451.2411 442.6664 433.5308 423.0792 413.7393 417.6263 425.1046 432.5859 437.6204 440.2791 444.2818 449.7446 456.8556 465.6331 473.8139 481.0978 487.1192 492.3107 498.9127 504.6863 507.8296 505.1047 500.4412 494.7445 489.3404 483.8578 476.6287 469.6122 462.5965 455.1091 448.2054 440.8993 435.4213 429.3573 422.9771 416.2783 412.479 409.7594 407.9359 414.4046 422.8666 430.8744 437.3591 443.958 449.3461 454.6191 453.8495 451.088 449.5297 446.9336 443.8947 438.2407 432.9296 428.8932 424.3853 419.4444 414.0228 408.5234 403.6451 401.3744 400.5842 397.8615 399.6119 402.704 409.7015 416.5732 423.0998 430.6207 437.5976 444.6034 450.7634 455.7491 458.7575 463.1078 466.0499 469.5025 473.3102 477.9927 483.0257 489.3473 496.568 503.4427 508.5695 514.2913 518.9777 -9999 -9999 -9999 -9999 -9999 -9999 -9999 -9999 -9999 -9999 -9999 -9999 -9999 -9999 -9999 -9999 -9999 -9999 -9999 -9999 -9999 -9999 -9999 -9999 -9999 -9999 -9999 -9999 -9999 -9999 -9999 -9999 -9999 -9999 -9999 -9999 -9999 -9999 -9999 -9999 -9999 -9999 -9999 -9999 -9999 -9999 -9999 -9999 -9999 -9999 -9999 -9999 -9999 -9999
-9999 -9999 -9999 -9999 -9999 -9999 -9999 -9999 -9999 -9999 -9999 -9999 -9999 -9999 -9999 -9999 -9999 -9999 -9999 -9999 -9999 -9999 -9999 -9999 -9999 -9999 -9999 -9999 -9999 -9999 -9999 -9999 -9999 -9999 -9999 -9999 -9999 -9999 -9999 -9999 588.1436 584.4669 579.312 573.7769 567.4088 559.4261 552.6459 546.7876 540.3883 534.7533 531.1544 532.113 536.2522 536.7124 532.5847 527.2209 521.3231 515.0815 508.1755 502.0833 494.5327 487.4682 481.2396 474.489 467.4245 460.6808 452.8878 443.8909 434.3972 425.0261 413.5694 410.2456 417.2491 424.5369 429.8625 434.481 439.975 447.4182 456.3755 464.119 471.7275 477.0875 482.029 487.4712 494.5876 500.9053 504.7915 503.1075 498.8806 492.4456 486.598 480.8289 474.9165 467.9922 460.7951 453.3389 446.1876 438.2338 432.2247 425.8567 419.798 414.8877 409.0736 406.3784 402.1775 411.4564 419.1579 427.4005 434.3751 440.8277 447.2399 449.7431 447.6216 443.9214 442.5986 440.7553 438.3641 433.6595 428.3636 423.4846 419.004 413.8986 407.8422 403.0272 399.797 400.3319 398.8232 396.8024 397.2413 406.223 414.3253 418.9697 424.9072 431.737 439.248 446.263 453.9699 460.5375 466.674 471.188 474.1736 477.1751 480.726 484.8827 489.1842 494.522 500.0374 505.6761 510.2573 515.6675 519.7465 -9999 -9999 -9999 -9999 -9999 -9999 -9999 -9999 -9999 -9999 -9999 -9999 -9999 -9999 -9999 -9999 -9999 -9999 -9999 -9999 -9999 -9999 -9999 -9999 -9999 -9999 -9999 -9999 -9999 -9999 -9999 -9999 -9999 -9999 -9999 -9999 -9999 -9999 -9999 -9999 -9999 -9999 -9999 -9999 -9999 -9999 -9999 -9999 -9999 -9999 -9999 -9999 -9999 -9999
-9999 -9999 -9999 -9999 -9999 -9999 -9999 -9999 -9999 -9999 -9999 -9999 -9999 -9999 -9999 -9999 -9999 -9999 -9999 -9999 -9999 -9999 -9999 -9999 -9999 -9999 -9999 -9999 -9999 -9999 -9999 -9999 -9999 -9999 -9999 -9999 -9999 -9999 -9999 -9999 583.9663 579.4523 575.5813 569.774 564.053 556.8483 549.3387 542.5151 536.2362 529.1335 524.5494 525.3792 528.6756 529.9954 527.7803 522.8044 518.8275 512.6561 506.1357 499.9726 493.7463 487.8819 481.6396 475.3806 468.3694 461.0298 453.4289 443.3552 434.7614 425.5267 415.085 407.606 411.7985 418.7982 424.6534 430.7144 437.644 445.4881 452.5137 459.6277 465.2178 470.4428 476.967 483.5149 490.3828 496.7036 501.2436 500.4275 495.8433 490.8271 484.4179 478.4255 472.4453 465.7923 458.5907 451.5879 444.3359 437.5046 430.8493 423.0144 416.4856 410.254 406.9126 401.4399 399.8351 409.6192 416.958 425.2158 432.1736 439.418 443.5434 443.1594 440.7263 438.0921 435.8122 434.1602 431.9511 429.0944 423.5829 418.431 413.1488 407.004 402.1196 397.178 396.5547 397.4371 397.3586 395.894 396.5974 406.1849 414.6057 423.1714 428.8414 435.025 441.3504 448.975 456.2696 463.1177 470.468 477.6414 482.458 485.3429 488.964 492.0798 495.9805 499.907 504.649 509.1013 513.4272 518.5738 -9999 -9999 -9999 -9999 -9999 -9999 -9999 -9999 -9999 -9999 -9999 -9999 -9999 -9999 -9999 -9999 -9999 -9999 -9999 -9999 -9999 -9999 -9999 -9999 -9999 -9999 -9999 -9999 -9999 -9999 -9999 -9999 -9999 -9999 -9999 -9999 -9999 -9999 -9999 -9999 -9999 -9999 -9999 -9999 -9999 -9999 -9999 -9999 -9999 -9999 -9999 -9999 -9999 -9999 -9999
-9999 -9999 -9999 -9999 -9999 -9999 -9999 -9999 -9999 -9999 -9999 -9999 -9999 -9999 -9999 -9999 -9999 -9999 -9999 -9999 -9999 -9999 -9999 -9999 -9999 -9999 -9999 -9999 -9999 -9999 -9999 -9999 -9999 -9999 -9999 -9999 -9999 -9999 -9999 582.9704 579.3905 573.9773 569.6308 564.2244 560.0731 554.1607 547.5961 540.3555 532.9116 525.0592 518.0579 518.1044 521.1852 523.6152 522.2557 517.0901 513.8463 510.0714 503.6698 497.3467 491.0518 484.9665 479.1852 473.1631 466.1627 458.17 449.8726 441.4982 433.1826 424.6687 415.5841 406.1833 407.084 413.9717 420.5204 425.7911 432.941 440.3796 447.3763 453.6803 460.4621 466.5962 474.3038 481.6069 486.396 490.1801 494.8672 495.4684 492.6269 487.6617 481.8042 476.5487 470.375 463.5886 456.092 448.9727 441.9524 434.865 429.1432 420.9029 413.609 406.8935 404.5435 400.274 397.05 407.2311 414.9387 422.3164 429.0136 435.595 438.7002 436.8813 433.988 430.3936 428.6875 426.259 425.2715 422.9207 417.4396 411.6697 406.8204 401.5207 396.698 394.2344 393.8161 393.9868 393.7658 394.2054 401.4048 408.6865 416.6075 424.5056 432.3024 439.0804 445.0515 452.122 458.9671 465.9264 473.4855 481.2373 487.6274 492.6711 496.8667 500.1418 502.9093 506.256 508.5954 512.6188 516.735 520.5275 -9999 -9999 -9999 -9999 -9999 -9999 -9999 -9999 -9999 -9999 -9999 -9999 -9999 -9999 -9999 -9999 -9999 -9999 -9999 -9999 -9999 -9999 -9999 -9999 -9999 -9999 -9999 -9999 -9999 -9999 -9999 -9999 -9999 -9999 -9999 -9999 -9999 -9999 -9999 -9999 -9999 -9999 -9999 -9999 -9999 -9999 -9999 -9999 -9999 -9999 -9999 -9999 -9999 -9999 -9999
-9999 -9999 -9999 -9999 -9999 -9999 -9999 -9999 -9999 -9999 -9999 -9999 -9999 -9999 -9999 -9999 -9999 -9999 -9999 -9999 -9999 -9999 -9999 -9999 -9999 -9999 -9999 -9999 -9999 -9999 -9999 -9999 -9999 -9999 -9999 -9999 -9999 -9999 -9999 580.9374 575.9539 571.3842 565.1396 559.1183 554.2247 549.9057 544.1046 537.3868 530.0792 521.9434 514.318 511.4399 512.3787 513.812 515.3444 512.045 507.5065 505.2136 501.1202 495.1209 488.7293 481.8972 475.3905 469.1474 461.8848 454.8774 447.6559 439.9369 432.2681 424.7678 415.5651 406.9065 402.6202 409.4988 415.8508 422.3416 429.4373 436.3921 443.3499 450.4456 458.0229 463.7113 469.9909 475.4941 478.8705 482.599 487.76 489.886 487.4697 483.5469 478.5657 473.0024 466.6267 459.3862 453.0981 446.4154 439.1398 431.5465 426.2018 418.594 411.9738 404.2684 402.5471 401.7142 392.7066 402.5227 411.3771 418.7823 425.5282 432.4571 434.3941 431.1884 428.087 424.3967 421.9072 420.0083 418.6687 416.1815 412.037 406.7411 401.0642 397.1148 391.857 391.5446 392.4011 392.3195 393.4107 396.1158 404.8003 412.9857 420.7162 428.0726 435.4899 443.2051 449.0207 455.5266 462.707 469.3371 476.3712 483.1362 489.8174 496.9863 502.9977 507.0287 510.0546 512.4214 514.9924 516.7061 520.1321 -9999 -9999 -9999 -9999 -9999 -9999 -9999 -9999 -9999 -9999 -9999 -9999 -9999 -9999 -9999 -9999 -9999 -9999 -9999 -9999 -9999 -9999 -9999 -9999 -9999 -9999 -9999 -9999 -9999 -9999 -9999 -9999 -9999 -9999 -9999 -9999 -9999 -9999 -9999 -9999 -9999 -9999 -9999 -9999 -9999 -9999 -9999 -9999 -9999 -9999 -9999 -9999 -9999 -9999 -9999 -9999
-9999 -9999 -9999 -9999 -9999 -9999 -9999 -9999 -9999 -9999 -9999 -9999 -9999 -9999 -9999 -9999 -9999 -9999 -9999 -9999 -9999 -9999 -9999 -9999 -9999 -9999 -9999 -9999 -9999 -9999 -9999 -9999 -9999 -9999 -9999 -9999 -9999 -9999 -9999 577.6616 572.1401 566.7078 560.9989 554.6103 548.0159 542.9783 538.7797 533.912 527.6408 520.2532 512.1417 505.8697 504.4295 504.7404 506.8702 504.9683 501.5126 498.5865 496.4521 493.4735 487.888 481.2312 474.7146 468.0699 460.3364 453.4289 446.641 439.2145 431.8193 423.7177 414.5791 404.0398 401.0711 406.3068 413.3888 419.75 425.5565 434.2806 442.1901 447.7832 454.1756 459.1431 464.3796 468.1301 470.6958 476.1784 482.2134 483.9561 481.2122 478.088 473.6211 468.6353 462.4365 456.054 449.5709 444.1957 436.9209 429.8122 423.2887 416.9771 410.4338 402.6515 400.1071 400.5605 391.8654 397.1597 406.479 416.1457 423.4853 428.4513 427.6771 424.7495 421.5018 417.7216 415.434 413.766 411.4106 409.0218 405.3398 400.2573 395.9116 392.3302 389.5184 391.7816 391.9789 390.7269 392.4727 396.1326 404.9931 414.8503 422.8932 431.4094 438.7611 446.2516 453.5333 460.5071 467.8566 474.8106 481.0148 486.7466 493.2022 498.6101 505.6328 511.1595 514.9947 517.424 519.0447 520.603 -9999 -9999 -9999 -9999 -9999 -9999 -9999 -9999 -9999 -9999 -9999 -9999 -9999 -9999 -9999 -9999 -9999 -9999 -9999 -9999 -9999 -9999 -9999 -9999 -9999 -9999 -9999 -9999 -9999 -9999 -9999 -9999 -9999 -9999 -9999 -9999 -9999 -9999 -9999 -9999 -9999 -9999 -9999 -9999 -9999 -9999 -9999 -9999 -9999 -9999 -9999 -9999 -9999 -9999 -9999 -9999 -9999
